ply
format ascii 1.0
element vertex 1733
property float x
property float y
property float z
end_header
446.97266 542.261 1434.0
455.05054 542.261 1434.0
463.12833 542.261 1434.0
471.20615 542.261 1434.0
479.28394 542.261 1434.0
489.4009 544.5299 1440.0
497.5126 544.5299 1440.0
505.62424 544.5299 1440.0
513.73584 544.5299 1440.0
521.8474 544.5299 1440.0
529.959 544.5299 1440.0
535.82874 542.261 1434.0
546.1823 544.5299 1440.0
551.9843 542.261 1434.0
564.74884 546.79877 1446.0
572.8942 546.79877 1446.0
581.03973 546.79877 1446.0
589.1851 546.79877 1446.0
599.8091 549.06757 1452.0
607.9883 549.06757 1452.0
616.1675 549.06757 1452.0
624.34674 549.06757 1452.0
632.526 549.06757 1452.0
640.70514 549.06757 1452.0
651.5657 551.3365 1458.0
659.7787 551.3365 1458.0
667.9918 551.3365 1458.0
676.2048 551.3365 1458.0
684.4178 551.3365 1458.0
692.63074 551.3365 1458.0
697.95966 549.06757 1452.0
709.0569 551.3365 1458.0
720.22156 553.60535 1464.0
728.4684 553.60535 1464.0
739.7345 555.87427 1470.0
744.962 553.60535 1464.0
756.2958 555.87427 1470.0
764.57635 555.87427 1470.0
776.53723 558.52124 1477.0
784.85724 558.52124 1477.0
796.39935 560.7901 1483.0
804.7533 560.7901 1483.0
813.1071 560.7901 1483.0
821.46094 560.7901 1483.0
826.4574 558.52124 1477.0
841.5597 563.059 1489.0
849.9474 563.059 1489.0
858.335 563.059 1489.0
866.72266 563.059 1489.0
875.1102 563.059 1489.0
876.3777 558.52124 1477.0
880.50494 555.87427 1470.0
-773.1649 493.19232 1324.0
-765.70667 493.19232 1324.0
-761.112 495.05484 1329.0
-756.461 496.91736 1334.0
-746.1393 495.05484 1329.0
-733.09503 491.32983 1319.0
-725.665 491.32983 1319.0
-720.9576 493.19232 1324.0
-713.49945 493.19232 1324.0
-706.0412 493.19232 1324.0
-698.5831 493.19232 1324.0
-688.5149 491.32983 1319.0
-683.6667 493.19232 1324.0
-676.20856 493.19232 1324.0
-671.27576 495.05484 1329.0
-663.78955 495.05484 1329.0
-656.3031 495.05484 1329.0
-648.8168 495.05484 1329.0
-641.33044 495.05484 1329.0
-633.84406 495.05484 1329.0
-628.7143 496.91736 1334.0
-621.1997 496.91736 1334.0
-611.3851 495.05484 1329.0
-603.8987 495.05484 1329.0
-598.6562 496.91736 1334.0
-591.14166 496.91736 1334.0
-585.81464 498.77985 1339.0
-578.272 498.77985 1339.0
-572.86053 500.64236 1344.0
-565.2896 500.64236 1344.0
-557.7188 500.64236 1344.0
-550.14795 500.64236 1344.0
-544.9993 502.8774 1350.0
-535.0063 500.64236 1344.0
-527.4354 500.64236 1344.0
-522.1854 502.8774 1350.0
-514.58075 502.8774 1350.0
-506.97614 502.8774 1350.0
-497.15207 500.64236 1344.0
-489.5812 500.64236 1344.0
-482.01038 500.64236 1344.0
-474.4395 500.64236 1344.0
-466.86868 500.64236 1344.0
-459.29785 500.64236 1344.0
-450.04645 498.77985 1339.0
-444.15616 500.64236 1344.0
-436.5853 500.64236 1344.0
-432.52576 504.73993 1355.0
-423.3251 502.8774 1350.0
-415.72043 502.8774 1350.0
-408.11578 502.8774 1350.0
-400.5111 502.8774 1350.0
-394.3617 504.73993 1355.0
-388.15598 506.60242 1360.0
-380.49496 506.60242 1360.0
-372.83398 506.60242 1360.0
-365.173 506.60242 1360.0
-357.51205 506.60242 1360.0
-348.5649 504.73993 1355.0
-340.93207 504.73993 1355.0
-334.52914 506.60242 1360.0
-325.6664 504.73993 1355.0
-318.03363 504.73993 1355.0
-311.54626 506.60242 1360.0
-303.88522 506.60242 1360.0
-296.2243 506.60242 1360.0
-288.5633 506.60242 1360.0
-280.90234 506.60242 1360.0
-273.24136 506.60242 1360.0
-266.75204 508.8374 1366.0
-174.66455 343.07416 921.0
-169.8445 343.81912 923.0
-165.5371 345.68164 928.0
-160.82787 346.79916 931.0
-155.58345 346.79916 931.0
-188.97064 506.60242 1360.0
-182.10959 508.8374 1366.0
-174.4148 508.8374 1366.0
-166.72003 508.8374 1366.0
-159.60738 510.69992 1371.0
-151.8844 510.69992 1371.0
-144.68724 512.56244 1376.0
-136.93611 512.56244 1376.0
-129.18503 512.56244 1376.0
-121.433945 512.56244 1376.0
-114.17852 514.7975 1382.0
-105.93173 512.56244 1376.0
-98.1806 512.56244 1376.0
-90.42952 512.56244 1376.0
-82.67844 512.56244 1376.0
-74.92731 512.56244 1376.0
-67.17622 512.56244 1376.0
-59.68421 514.7975 1382.0
-51.899334 514.7975 1382.0
-44.305977 517.0325 1388.0
-36.48725 517.0325 1388.0
-28.668571 517.0325 1388.0
-20.849842 517.0325 1388.0
-13.078106 518.89496 1393.0
-5.212486 517.0325 1388.0
2.594927 514.7975 1382.0
10.379907 514.7975 1382.0
18.24365 517.0325 1388.0
26.062328 517.0325 1388.0
33.88101 517.0325 1388.0
41.699684 517.0325 1388.0
49.696846 518.89496 1393.0
57.54369 518.89496 1393.0
65.39053 518.89496 1393.0
73.23737 518.89496 1393.0
81.08422 518.89496 1393.0
88.93117 518.89496 1393.0
96.77801 518.89496 1393.0
104.62485 518.89496 1393.0
112.95614 521.12994 1399.0
120.836784 521.12994 1399.0
128.71753 521.12994 1399.0
137.08636 522.9925 1404.0
144.99518 522.9925 1404.0
152.90398 522.9925 1404.0
160.81277 522.9925 1404.0
169.44272 525.22754 1410.0
177.38533 525.22754 1410.0
185.32794 525.22754 1410.0
194.09297 527.4625 1416.0
201.21315 525.22754 1410.0
210.04588 527.4625 1416.0
217.09846 525.22754 1410.0
225.99869 527.4625 1416.0
233.9751 527.4625 1416.0
241.95149 527.4625 1416.0
249.92801 527.4625 1416.0
257.90442 527.4625 1416.0
264.7542 525.22754 1410.0
273.8572 527.4625 1416.0
281.83362 527.4625 1416.0
289.81012 527.4625 1416.0
297.78653 527.4625 1416.0
305.76294 527.4625 1416.0
313.73935 527.4625 1416.0
323.07895 529.6976 1422.0
331.08926 529.6976 1422.0
339.09943 529.6976 1422.0
347.10965 529.6976 1422.0
355.11987 529.6976 1422.0
363.13004 529.6976 1422.0
371.14038 529.6976 1422.0
380.75037 531.93256 1428.0
388.79437 531.93256 1428.0
398.50577 534.16754 1434.0
404.88235 531.93256 1428.0
414.66144 534.16754 1434.0
420.97046 531.93256 1428.0
429.01447 531.93256 1428.0
438.89487 534.16754 1434.0
448.84283 536.4026 1440.0
455.05054 534.16754 1434.0
463.12833 534.16754 1434.0
471.20615 534.16754 1434.0
479.28394 534.16754 1434.0
489.4009 536.4026 1440.0
495.43964 534.16754 1434.0
505.62424 536.4026 1440.0
513.73584 536.4026 1440.0
521.8474 536.4026 1440.0
529.959 536.4026 1440.0
535.82874 534.16754 1434.0
543.90656 534.16754 1434.0
551.9843 534.16754 1434.0
562.40546 536.4026 1440.0
570.5171 536.4026 1440.0
581.03973 538.6376 1446.0
589.1851 538.6376 1446.0
599.8091 540.8726 1452.0
607.9883 540.8726 1452.0
616.1675 540.8726 1452.0
624.34674 540.8726 1452.0
632.526 540.8726 1452.0
640.70514 540.8726 1452.0
648.88434 540.8726 1452.0
657.0636 540.8726 1452.0
665.2428 540.8726 1452.0
676.2048 543.1076 1458.0
684.4178 543.1076 1458.0
692.63074 543.1076 1458.0
697.95966 540.8726 1452.0
709.0569 543.1076 1458.0
717.26984 543.1076 1458.0
728.4684 545.3426 1464.0
739.7345 547.57764 1470.0
748.015 547.57764 1470.0
759.89716 550.1851 1477.0
768.2172 550.1851 1477.0
776.53723 550.1851 1477.0
784.85724 550.1851 1477.0
796.39935 552.4201 1483.0
804.7533 552.4201 1483.0
813.1071 552.4201 1483.0
821.46094 552.4201 1483.0
829.81476 552.4201 1483.0
838.1686 552.4201 1483.0
846.5225 552.4201 1483.0
854.87634 552.4201 1483.0
866.72266 554.65515 1489.0
875.1102 554.65515 1489.0
879.93774 552.4201 1483.0
880.50494 547.57764 1470.0
-776.0847 487.55405 1329.0
-765.70667 485.71976 1324.0
-761.112 487.55405 1329.0
-750.79034 485.71976 1324.0
-740.52496 483.88547 1319.0
-730.31604 482.05118 1314.0
-725.665 483.88547 1319.0
-715.5123 482.05118 1314.0
-713.49945 485.71976 1324.0
-703.3749 483.88547 1319.0
-698.5831 485.71976 1324.0
-688.5149 483.88547 1319.0
-683.6667 485.71976 1324.0
-676.20856 485.71976 1324.0
-671.27576 487.55405 1329.0
-663.78955 487.55405 1329.0
-656.3031 487.55405 1329.0
-646.3758 485.71976 1324.0
-641.33044 487.55405 1329.0
-633.84406 487.55405 1329.0
-628.7143 489.38834 1334.0
-618.8714 487.55405 1329.0
-611.3851 487.55405 1329.0
-603.8987 487.55405 1329.0
-596.41235 487.55405 1329.0
-591.14166 489.38834 1334.0
-585.81464 491.22263 1339.0
-580.43134 493.05692 1344.0
-572.86053 493.05692 1344.0
-565.2896 493.05692 1344.0
-555.644 491.22263 1339.0
-548.10126 491.22263 1339.0
-542.57715 493.05692 1344.0
-535.0063 493.05692 1344.0
-527.4354 493.05692 1344.0
-519.8646 493.05692 1344.0
-514.58075 495.25806 1350.0
-506.97614 495.25806 1350.0
-497.15207 493.05692 1344.0
-489.5812 493.05692 1344.0
-482.01038 493.05692 1344.0
-474.4395 493.05692 1344.0
-466.86868 493.05692 1344.0
-459.29785 493.05692 1344.0
-451.727 493.05692 1344.0
-444.15616 493.05692 1344.0
-438.5343 495.25806 1350.0
-432.52576 497.09235 1355.0
-424.89297 497.09235 1355.0
-415.72043 495.25806 1350.0
-408.11578 495.25806 1350.0
-401.99448 497.09235 1355.0
-394.3617 497.09235 1355.0
-386.72894 497.09235 1355.0
-380.49496 498.92664 1360.0
-371.4633 497.09235 1355.0
-363.83044 497.09235 1355.0
-356.19766 497.09235 1355.0
-348.5649 497.09235 1355.0
-340.93207 497.09235 1355.0
-334.52914 498.92664 1360.0
-326.86813 498.92664 1360.0
-319.20718 498.92664 1360.0
-311.54626 498.92664 1360.0
-303.88522 498.92664 1360.0
-296.2243 498.92664 1360.0
-287.50238 497.09235 1355.0
-279.8696 497.09235 1355.0
-273.24136 498.92664 1360.0
-179.85258 337.87604 921.0
-174.66455 337.87604 921.0
-169.47647 337.87604 921.0
-165.18033 339.71033 926.0
-160.30962 340.44406 928.0
-155.91768 342.27835 933.0
-151.9539 345.2132 941.0
-181.30971 498.92664 1360.0
-174.4148 501.12778 1366.0
-166.72003 501.12778 1366.0
-159.60738 502.96207 1371.0
-151.8844 502.96207 1371.0
-144.68724 504.79636 1376.0
-136.93611 504.79636 1376.0
-129.18503 504.79636 1376.0
-121.433945 504.79636 1376.0
-114.17852 506.9975 1382.0
-106.39365 506.9975 1382.0
-98.60872 506.9975 1382.0
-90.82384 506.9975 1382.0
-83.03895 506.9975 1382.0
-75.25403 506.9975 1382.0
-67.46914 506.9975 1382.0
-59.68421 506.9975 1382.0
-52.124657 509.19864 1388.0
-44.305977 509.19864 1388.0
-36.48725 509.19864 1388.0
-28.668571 509.19864 1388.0
-20.849842 509.19864 1388.0
-13.078106 511.03293 1393.0
-5.212486 509.19864 1388.0
2.583661 504.79636 1376.0
10.379907 506.9975 1382.0
18.24365 509.19864 1388.0
26.062328 509.19864 1388.0
33.88101 509.19864 1388.0
41.699684 509.19864 1388.0
49.518463 509.19864 1388.0
57.337143 509.19864 1388.0
65.39053 511.03293 1393.0
73.23737 511.03293 1393.0
81.08422 511.03293 1393.0
88.93117 511.03293 1393.0
96.77801 511.03293 1393.0
104.62485 511.03293 1393.0
112.471695 511.03293 1393.0
120.836784 513.2341 1399.0
128.71753 513.2341 1399.0
137.08636 515.06836 1404.0
144.99518 515.06836 1404.0
152.90398 515.06836 1404.0
160.81277 515.06836 1404.0
168.72171 515.06836 1404.0
177.38533 517.26953 1410.0
186.11658 519.47064 1416.0
193.27055 517.26953 1410.0
201.21315 517.26953 1410.0
209.15585 517.26953 1410.0
217.09846 517.26953 1410.0
225.04108 517.26953 1410.0
233.9751 519.47064 1416.0
241.95149 519.47064 1416.0
249.92801 519.47064 1416.0
257.90442 519.47064 1416.0
265.8808 519.47064 1416.0
273.8572 519.47064 1416.0
281.83362 519.47064 1416.0
289.81012 519.47064 1416.0
297.78653 519.47064 1416.0
305.76294 519.47064 1416.0
313.73935 519.47064 1416.0
323.07895 521.6718 1422.0
331.08926 521.6718 1422.0
339.09943 521.6718 1422.0
347.10965 521.6718 1422.0
355.11987 521.6718 1422.0
363.13004 521.6718 1422.0
371.14038 521.6718 1422.0
379.15054 521.6718 1422.0
388.79437 523.873 1428.0
396.83835 523.873 1428.0
406.58356 526.0741 1434.0
414.66144 526.0741 1434.0
422.73923 526.0741 1434.0
429.01447 523.873 1428.0
438.89487 526.0741 1434.0
446.97266 526.0741 1434.0
455.05054 526.0741 1434.0
463.12833 526.0741 1434.0
473.17773 528.27527 1440.0
481.2893 528.27527 1440.0
489.4009 528.27527 1440.0
495.43964 526.0741 1434.0
505.62424 528.27527 1440.0
511.59525 526.0741 1434.0
521.8474 528.27527 1440.0
529.959 528.27527 1440.0
535.82874 526.0741 1434.0
543.90656 526.0741 1434.0
551.9843 526.0741 1434.0
560.06213 526.0741 1434.0
572.8942 530.4764 1446.0
581.03973 530.4764 1446.0
589.1851 530.4764 1446.0
597.33057 530.4764 1446.0
607.9883 532.67755 1452.0
616.1675 532.67755 1452.0
624.34674 532.67755 1452.0
632.526 532.67755 1452.0
640.70514 532.67755 1452.0
648.88434 532.67755 1452.0
657.0636 532.67755 1452.0
665.2428 532.67755 1452.0
676.2048 534.8787 1458.0
684.4178 534.8787 1458.0
692.63074 534.8787 1458.0
700.84375 534.8787 1458.0
711.9748 537.07983 1464.0
720.22156 537.07983 1464.0
728.4684 537.07983 1464.0
739.7345 539.281 1470.0
748.015 539.281 1470.0
759.89716 541.849 1477.0
768.2172 541.849 1477.0
776.53723 541.849 1477.0
784.85724 541.849 1477.0
793.1773 541.849 1477.0
801.4974 541.849 1477.0
813.1071 544.0502 1483.0
824.7844 546.2513 1489.0
829.81476 544.0502 1483.0
838.1686 544.0502 1483.0
846.5225 544.0502 1483.0
854.87634 544.0502 1483.0
863.2301 544.0502 1483.0
868.0576 541.849 1477.0
876.3777 541.849 1477.0
884.69775 541.849 1477.0
-776.0847 480.05325 1329.0
-768.5983 480.05325 1329.0
-761.112 480.05325 1329.0
-750.79034 478.24716 1324.0
-737.71783 474.63504 1314.0
-727.53705 472.82895 1309.0
-722.9141 474.63504 1314.0
-715.5123 474.63504 1314.0
-708.1105 474.63504 1314.0
-703.3749 476.4411 1319.0
-698.5831 478.24716 1324.0
-688.5149 476.4411 1319.0
-683.6667 478.24716 1324.0
-676.20856 478.24716 1324.0
-671.27576 480.05325 1329.0
-663.78955 480.05325 1329.0
-653.8339 478.24716 1324.0
-646.3758 478.24716 1324.0
-638.9176 478.24716 1324.0
-633.84406 480.05325 1329.0
-626.3578 480.05325 1329.0
-618.8714 480.05325 1329.0
-613.68524 481.8593 1334.0
-603.8987 480.05325 1329.0
-596.41235 480.05325 1329.0
-591.14166 481.8593 1334.0
-585.81464 483.66537 1339.0
-580.43134 485.47144 1344.0
-572.86053 485.47144 1344.0
-563.18665 483.66537 1339.0
-553.5691 481.8593 1334.0
-548.10126 483.66537 1339.0
-540.5586 483.66537 1339.0
-533.0159 483.66537 1339.0
-527.4354 485.47144 1344.0
-519.8646 485.47144 1344.0
-514.58075 487.6387 1350.0
-506.97614 487.6387 1350.0
-497.15207 485.47144 1344.0
-489.5812 485.47144 1344.0
-482.01038 485.47144 1344.0
-474.4395 485.47144 1344.0
-466.86868 485.47144 1344.0
-459.29785 485.47144 1344.0
-451.727 485.47144 1344.0
-444.15616 485.47144 1344.0
-440.1585 489.44476 1355.0
-432.52576 489.44476 1355.0
-424.89297 489.44476 1355.0
-415.72043 487.6387 1350.0
-408.11578 487.6387 1350.0
-401.99448 489.44476 1355.0
-394.3617 489.44476 1355.0
-386.72894 489.44476 1355.0
-379.0961 489.44476 1355.0
-371.4633 489.44476 1355.0
-363.83044 489.44476 1355.0
-356.19766 489.44476 1355.0
-348.5649 489.44476 1355.0
-340.93207 489.44476 1355.0
-333.29926 489.44476 1355.0
-325.6664 489.44476 1355.0
-319.20718 491.25082 1360.0
-311.54626 491.25082 1360.0
-303.88522 491.25082 1360.0
-297.53116 493.41815 1366.0
-288.5633 491.25082 1360.0
-280.90234 491.25082 1360.0
-275.45142 495.2242 1371.0
-178.87619 330.8719 916.0
-173.71632 330.8719 916.0
-169.10844 331.95554 919.0
-164.28844 332.67795 921.0
-159.1004 332.67795 921.0
-155.0821 335.20645 928.0
-151.1465 338.09616 936.0
-146.65315 339.90222 941.0
-174.4148 493.41815 1366.0
-167.33029 495.2242 1371.0
-159.60738 495.2242 1371.0
-151.8844 495.2242 1371.0
-144.16148 495.2242 1371.0
-136.93611 497.03027 1376.0
-129.18503 497.03027 1376.0
-121.433945 497.03027 1376.0
-113.682816 497.03027 1376.0
-105.93173 497.03027 1376.0
-98.60872 499.19754 1382.0
-90.82384 499.19754 1382.0
-82.67844 497.03027 1376.0
-74.92731 497.03027 1376.0
-67.17622 497.03027 1376.0
-59.42509 497.03027 1376.0
-51.899334 499.19754 1382.0
-44.305977 501.36484 1388.0
-36.48725 501.36484 1388.0
-28.668571 501.36484 1388.0
-20.849842 501.36484 1388.0
-13.078106 503.1709 1393.0
-5.212486 501.36484 1388.0
2.594927 499.19754 1382.0
10.334842 497.03027 1376.0
18.164787 499.19754 1382.0
26.156212 503.1709 1393.0
34.003056 503.1709 1393.0
41.8499 503.1709 1393.0
49.696846 503.1709 1393.0
57.337143 501.36484 1388.0
65.39053 503.1709 1393.0
73.23737 503.1709 1393.0
81.43347 505.3382 1399.0
89.31421 505.3382 1399.0
97.194855 505.3382 1399.0
105.0755 505.3382 1399.0
112.471695 503.1709 1393.0
120.318535 503.1709 1393.0
128.71753 505.3382 1399.0
136.59818 505.3382 1399.0
144.99518 507.1443 1404.0
153.55742 509.31152 1410.0
160.81277 507.1443 1404.0
168.72171 507.1443 1404.0
177.38533 509.31152 1410.0
186.11658 511.47882 1416.0
193.27055 509.31152 1410.0
201.21315 509.31152 1410.0
209.15585 509.31152 1410.0
217.09846 509.31152 1410.0
225.99869 511.47882 1416.0
233.9751 511.47882 1416.0
241.95149 511.47882 1416.0
249.92801 511.47882 1416.0
257.90442 511.47882 1416.0
265.8808 511.47882 1416.0
273.8572 511.47882 1416.0
281.83362 511.47882 1416.0
289.81012 511.47882 1416.0
297.78653 511.47882 1416.0
305.76294 511.47882 1416.0
313.73935 511.47882 1416.0
323.07895 513.64606 1422.0
331.08926 513.64606 1422.0
339.09943 513.64606 1422.0
345.64505 511.47882 1416.0
355.11987 513.64606 1422.0
363.13004 513.64606 1422.0
371.14038 513.64606 1422.0
380.75037 515.8134 1428.0
388.79437 515.8134 1428.0
396.83835 515.8134 1428.0
406.58356 517.9807 1434.0
414.66144 517.9807 1434.0
422.73923 517.9807 1434.0
429.01447 515.8134 1428.0
438.89487 517.9807 1434.0
446.97266 517.9807 1434.0
455.05054 517.9807 1434.0
463.12833 517.9807 1434.0
471.20615 517.9807 1434.0
481.2893 520.14795 1440.0
489.4009 520.14795 1440.0
495.43964 517.9807 1434.0
503.51743 517.9807 1434.0
513.73584 520.14795 1440.0
521.8474 520.14795 1440.0
527.75085 517.9807 1434.0
535.82874 517.9807 1434.0
543.90656 517.9807 1434.0
551.9843 517.9807 1434.0
562.40546 520.14795 1440.0
570.5171 520.14795 1440.0
581.03973 522.31525 1446.0
591.6299 524.4825 1452.0
599.8091 524.4825 1452.0
607.9883 524.4825 1452.0
613.62134 522.31525 1446.0
624.34674 524.4825 1452.0
632.526 524.4825 1452.0
640.70514 524.4825 1452.0
648.88434 524.4825 1452.0
657.0636 524.4825 1452.0
667.9918 526.6498 1458.0
673.42206 524.4825 1452.0
684.4178 526.6498 1458.0
692.63074 526.6498 1458.0
700.84375 526.6498 1458.0
711.9748 528.81714 1464.0
720.22156 528.81714 1464.0
725.48285 526.6498 1458.0
733.6958 526.6498 1458.0
748.015 530.9844 1470.0
759.89716 533.5128 1477.0
768.2172 533.5128 1477.0
776.53723 533.5128 1477.0
784.85724 533.5128 1477.0
793.1773 533.5128 1477.0
801.4974 533.5128 1477.0
813.1071 535.6802 1483.0
824.7844 537.8475 1489.0
829.81476 535.6802 1483.0
838.1686 535.6802 1483.0
846.5225 535.6802 1483.0
854.87634 535.6802 1483.0
863.2301 535.6802 1483.0
868.0576 533.5128 1477.0
876.3777 533.5128 1477.0
884.69775 533.5128 1477.0
-776.0847 472.5524 1329.0
-768.5983 472.5524 1329.0
-758.24854 470.77454 1324.0
-750.79034 470.77454 1324.0
-743.3321 470.77454 1324.0
-733.09503 468.99667 1319.0
-722.9141 467.21884 1314.0
-715.5123 467.21884 1314.0
-710.80493 468.99667 1319.0
-703.3749 468.99667 1319.0
-695.94495 468.99667 1319.0
-688.5149 468.99667 1319.0
-681.0849 468.99667 1319.0
-676.20856 470.77454 1324.0
-668.7503 470.77454 1324.0
-661.2922 470.77454 1324.0
-653.8339 470.77454 1324.0
-648.8168 472.5524 1329.0
-638.9176 470.77454 1324.0
-631.45935 470.77454 1324.0
-624.0013 470.77454 1324.0
-618.8714 472.5524 1329.0
-611.3851 472.5524 1329.0
-603.8987 472.5524 1329.0
-598.6562 474.33023 1334.0
-593.35736 476.1081 1339.0
-588.00214 477.88593 1344.0
-580.43134 477.88593 1344.0
-572.86053 477.88593 1344.0
-565.2896 477.88593 1344.0
-555.644 476.1081 1339.0
-550.14795 477.88593 1344.0
-540.5586 476.1081 1339.0
-533.0159 476.1081 1339.0
-525.47327 476.1081 1339.0
-519.8646 477.88593 1344.0
-512.2937 477.88593 1344.0
-506.97614 480.01935 1350.0
-497.15207 477.88593 1344.0
-487.75986 476.1081 1339.0
-480.2172 476.1081 1339.0
-472.67447 476.1081 1339.0
-466.86868 477.88593 1344.0
-461.34833 480.01935 1350.0
-453.74362 480.01935 1350.0
-444.15616 477.88593 1344.0
-438.5343 480.01935 1350.0
-430.92972 480.01935 1350.0
-423.3251 480.01935 1350.0
-415.72043 480.01935 1350.0
-408.11578 480.01935 1350.0
-401.99448 481.79718 1355.0
-394.3617 481.79718 1355.0
-385.30188 480.01935 1350.0
-377.6972 480.01935 1350.0
-371.4633 481.79718 1355.0
-363.83044 481.79718 1355.0
-356.19766 481.79718 1355.0
-348.5649 481.79718 1355.0
-342.19012 483.57504 1360.0
-334.52914 483.57504 1360.0
-326.86813 483.57504 1360.0
-319.20718 483.57504 1360.0
-311.54626 483.57504 1360.0
-305.2259 485.70847 1366.0
-297.53116 485.70847 1366.0
-288.5633 483.57504 1360.0
-282.1416 485.70847 1366.0
-183.63428 324.99088 914.0
-178.48563 324.99088 914.0
-173.33702 324.99088 914.0
-168.5564 325.70203 916.0
-163.93167 326.76874 919.0
-159.1004 327.4799 921.0
-154.24654 328.19104 923.0
-150.33908 331.03558 931.0
-146.34146 333.88013 939.0
-141.8031 335.658 944.0
-167.94054 489.26416 1376.0
-159.60738 487.4863 1371.0
-151.8844 487.4863 1371.0
-144.16148 487.4863 1371.0
-136.93611 489.26416 1376.0
-129.18503 489.26416 1376.0
-121.433945 489.26416 1376.0
-113.682816 489.26416 1376.0
-105.93173 489.26416 1376.0
-98.1806 489.26416 1376.0
-90.42952 489.26416 1376.0
-83.03895 491.3976 1382.0
-74.92731 489.26416 1376.0
-67.17622 489.26416 1376.0
-59.42509 489.26416 1376.0
-51.899334 491.3976 1382.0
-44.114456 491.3976 1382.0
-36.48725 493.53104 1388.0
-28.668571 493.53104 1388.0
-20.849842 493.53104 1388.0
-13.031164 493.53104 1388.0
-5.212486 493.53104 1388.0
2.594927 491.3976 1382.0
10.379907 491.3976 1382.0
18.24365 493.53104 1388.0
26.062328 493.53104 1388.0
33.88101 493.53104 1388.0
41.8499 495.30887 1393.0
49.518463 493.53104 1388.0
57.54369 495.30887 1393.0
65.39053 495.30887 1393.0
73.552826 497.4423 1399.0
81.43347 497.4423 1399.0
89.31421 497.4423 1399.0
97.194855 497.4423 1399.0
105.0755 497.4423 1399.0
112.471695 495.30887 1393.0
120.318535 495.30887 1393.0
128.71753 497.4423 1399.0
136.59818 497.4423 1399.0
144.99518 499.22012 1404.0
152.90398 499.22012 1404.0
160.81277 499.22012 1404.0
168.72171 499.22012 1404.0
177.38533 501.35355 1410.0
186.11658 503.48694 1416.0
193.27055 501.35355 1410.0
201.21315 501.35355 1410.0
209.15585 501.35355 1410.0
218.0223 503.48694 1416.0
225.99869 503.48694 1416.0
233.9751 503.48694 1416.0
241.95149 503.48694 1416.0
249.92801 503.48694 1416.0
257.90442 503.48694 1416.0
265.8808 503.48694 1416.0
273.8572 503.48694 1416.0
281.83362 503.48694 1416.0
289.81012 503.48694 1416.0
297.78653 503.48694 1416.0
307.05853 505.62042 1422.0
315.06876 505.62042 1422.0
323.07895 505.62042 1422.0
329.69226 503.48694 1416.0
339.09943 505.62042 1422.0
345.64505 503.48694 1416.0
355.11987 505.62042 1422.0
363.13004 505.62042 1422.0
372.7064 507.7538 1428.0
380.75037 507.7538 1428.0
390.42795 509.88724 1434.0
396.83835 507.7538 1428.0
406.58356 509.88724 1434.0
414.66144 509.88724 1434.0
422.73923 509.88724 1434.0
430.81705 509.88724 1434.0
438.89487 509.88724 1434.0
446.97266 509.88724 1434.0
455.05054 509.88724 1434.0
463.12833 509.88724 1434.0
471.20615 509.88724 1434.0
481.2893 512.0206 1440.0
489.4009 512.0206 1440.0
495.43964 509.88724 1434.0
503.51743 509.88724 1434.0
513.73584 512.0206 1440.0
521.8474 512.0206 1440.0
529.959 512.0206 1440.0
535.82874 509.88724 1434.0
543.90656 509.88724 1434.0
551.9843 509.88724 1434.0
562.40546 512.0206 1440.0
572.8942 514.15405 1446.0
581.03973 514.15405 1446.0
591.6299 516.2875 1452.0
599.8091 516.2875 1452.0
605.47595 514.15405 1446.0
613.62134 514.15405 1446.0
621.76685 514.15405 1446.0
632.526 516.2875 1452.0
640.70514 516.2875 1452.0
648.88434 516.2875 1452.0
657.0636 516.2875 1452.0
667.9918 518.4209 1458.0
673.42206 516.2875 1452.0
687.2343 520.5543 1464.0
695.4811 520.5543 1464.0
703.7279 520.5543 1464.0
711.9748 520.5543 1464.0
720.22156 520.5543 1464.0
728.4684 520.5543 1464.0
739.7345 522.68774 1470.0
744.962 520.5543 1464.0
759.89716 525.17676 1477.0
768.2172 525.17676 1477.0
776.53723 525.17676 1477.0
784.85724 525.17676 1477.0
793.1773 525.17676 1477.0
801.4974 525.17676 1477.0
809.81744 525.17676 1477.0
818.1374 525.17676 1477.0
826.4574 525.17676 1477.0
834.77747 525.17676 1477.0
843.09753 525.17676 1477.0
854.87634 527.3102 1483.0
863.2301 527.3102 1483.0
868.0576 525.17676 1477.0
876.3777 525.17676 1477.0
884.69775 525.17676 1477.0
-779.0045 466.80118 1334.0
-771.49 466.80118 1334.0
-761.112 465.05154 1329.0
-750.79034 463.3019 1324.0
-746.1393 465.05154 1329.0
-735.874 463.3019 1324.0
-728.4158 463.3019 1324.0
-718.235 461.55228 1319.0
-710.80493 461.55228 1319.0
-703.3749 461.55228 1319.0
-698.5831 463.3019 1324.0
-688.5149 461.55228 1319.0
-678.50305 459.80264 1314.0
-673.65485 461.55228 1319.0
-668.7503 463.3019 1324.0
-661.2922 463.3019 1324.0
-653.8339 463.3019 1324.0
-648.8168 465.05154 1329.0
-638.9176 463.3019 1324.0
-631.45935 463.3019 1324.0
-626.3578 465.05154 1329.0
-618.8714 465.05154 1329.0
-613.68524 466.80118 1334.0
-603.8987 465.05154 1329.0
-598.6562 466.80118 1334.0
-593.35736 468.55078 1339.0
-585.81464 468.55078 1339.0
-580.43134 470.3004 1344.0
-572.86053 470.3004 1344.0
-565.2896 470.3004 1344.0
-557.7188 470.3004 1344.0
-550.14795 470.3004 1344.0
-542.57715 470.3004 1344.0
-535.0063 470.3004 1344.0
-527.4354 470.3004 1344.0
-519.8646 470.3004 1344.0
-514.58075 472.4 1350.0
-508.85382 474.14963 1355.0
-495.30255 468.55078 1339.0
-487.75986 468.55078 1339.0
-482.01038 470.3004 1344.0
-474.4395 470.3004 1344.0
-466.86868 470.3004 1344.0
-461.34833 472.4 1350.0
-453.74362 472.4 1350.0
-446.13898 472.4 1350.0
-438.5343 472.4 1350.0
-430.92972 472.4 1350.0
-423.3251 472.4 1350.0
-417.26013 474.14963 1355.0
-409.62732 474.14963 1355.0
-401.99448 474.14963 1355.0
-394.3617 474.14963 1355.0
-386.72894 474.14963 1355.0
-377.6972 472.4 1350.0
-370.09256 472.4 1350.0
-360.87686 470.3004 1344.0
-356.19766 474.14963 1355.0
-349.8511 475.89926 1360.0
-340.93207 474.14963 1355.0
-333.29926 474.14963 1355.0
-325.6664 474.14963 1355.0
-318.03363 474.14963 1355.0
-311.54626 475.89926 1360.0
-303.88522 475.89926 1360.0
-297.53116 477.9988 1366.0
-289.83636 477.9988 1366.0
-283.17435 479.74844 1371.0
-183.63428 319.83228 914.0
-177.8998 318.7825 911.0
-173.33702 319.83228 914.0
-168.18837 319.83228 914.0
-163.93167 321.5819 919.0
-159.1004 322.28177 921.0
-153.91231 322.28177 921.0
-149.53168 324.03137 926.0
-145.40637 326.48087 933.0
-141.35245 329.28027 941.0
-158.32678 475.89926 1360.0
-151.33049 477.9988 1366.0
-143.63574 477.9988 1366.0
-136.93611 481.49808 1376.0
-129.18503 481.49808 1376.0
-121.433945 481.49808 1376.0
-113.682816 481.49808 1376.0
-105.93173 481.49808 1376.0
-98.1806 481.49808 1376.0
-90.42952 481.49808 1376.0
-83.03895 483.5976 1382.0
-74.92731 481.49808 1376.0
-67.46914 483.5976 1382.0
-59.68421 483.5976 1382.0
-51.899334 483.5976 1382.0
-44.114456 483.5976 1382.0
-36.329525 483.5976 1382.0
-28.668571 485.69714 1388.0
-20.849842 485.69714 1388.0
-13.031164 485.69714 1388.0
-5.1899533 483.5976 1382.0
2.583661 481.49808 1376.0
10.379907 483.5976 1382.0
18.164787 483.5976 1382.0
26.156212 487.44678 1393.0
34.003056 487.44678 1393.0
41.8499 487.44678 1393.0
49.518463 485.69714 1388.0
57.54369 487.44678 1393.0
65.39053 487.44678 1393.0
73.552826 489.54636 1399.0
81.43347 489.54636 1399.0
89.31421 489.54636 1399.0
97.194855 489.54636 1399.0
105.0755 489.54636 1399.0
112.471695 487.44678 1393.0
120.318535 487.44678 1393.0
128.16548 487.44678 1393.0
136.59818 489.54636 1399.0
144.4788 489.54636 1399.0
152.35945 489.54636 1399.0
160.81277 491.296 1404.0
168.72171 491.296 1404.0
177.38533 493.39554 1410.0
185.32794 493.39554 1410.0
193.27055 493.39554 1410.0
201.21315 493.39554 1410.0
209.15585 493.39554 1410.0
218.0223 495.49512 1416.0
225.99869 495.49512 1416.0
233.9751 495.49512 1416.0
241.95149 495.49512 1416.0
249.92801 495.49512 1416.0
257.90442 495.49512 1416.0
265.8808 495.49512 1416.0
272.6968 493.39554 1410.0
281.83362 495.49512 1416.0
289.81012 495.49512 1416.0
297.78653 495.49512 1416.0
307.05853 497.59464 1422.0
315.06876 497.59464 1422.0
321.71573 495.49512 1416.0
329.69226 495.49512 1416.0
339.09943 497.59464 1422.0
345.64505 495.49512 1416.0
355.11987 497.59464 1422.0
363.13004 497.59464 1422.0
372.7064 499.69418 1428.0
380.75037 499.69418 1428.0
390.42795 501.79376 1434.0
398.50577 501.79376 1434.0
406.58356 501.79376 1434.0
414.66144 501.79376 1434.0
422.73923 501.79376 1434.0
430.81705 501.79376 1434.0
438.89487 501.79376 1434.0
446.97266 501.79376 1434.0
455.05054 501.79376 1434.0
463.12833 501.79376 1434.0
471.20615 501.79376 1434.0
479.28394 501.79376 1434.0
487.36176 501.79376 1434.0
495.43964 501.79376 1434.0
503.51743 501.79376 1434.0
511.59525 501.79376 1434.0
521.8474 503.8933 1440.0
527.75085 501.79376 1434.0
535.82874 501.79376 1434.0
543.90656 501.79376 1434.0
554.2939 503.8933 1440.0
562.40546 503.8933 1440.0
572.8942 505.9929 1446.0
581.03973 505.9929 1446.0
589.1851 505.9929 1446.0
597.33057 505.9929 1446.0
607.9883 508.0924 1452.0
616.1675 508.0924 1452.0
624.34674 508.0924 1452.0
632.526 508.0924 1452.0
638.0576 505.9929 1446.0
648.88434 508.0924 1452.0
657.0636 508.0924 1452.0
665.2428 508.0924 1452.0
676.2048 510.19196 1458.0
684.4178 510.19196 1458.0
692.63074 510.19196 1458.0
703.7279 512.2915 1464.0
711.9748 512.2915 1464.0
717.26984 510.19196 1458.0
728.4684 512.2915 1464.0
736.71515 512.2915 1464.0
741.9088 510.19196 1458.0
753.2088 512.2915 1464.0
768.2172 516.8406 1477.0
776.53723 516.8406 1477.0
784.85724 516.8406 1477.0
793.1773 516.8406 1477.0
801.4974 516.8406 1477.0
809.81744 516.8406 1477.0
818.1374 516.8406 1477.0
826.4574 516.8406 1477.0
834.77747 516.8406 1477.0
843.09753 516.8406 1477.0
851.4176 516.8406 1477.0
859.7376 516.8406 1477.0
868.0576 516.8406 1477.0
876.3777 516.8406 1477.0
884.69775 516.8406 1477.0
-773.1649 455.82928 1324.0
-765.70667 455.82928 1324.0
-758.24854 455.82928 1324.0
-750.79034 455.82928 1324.0
-743.3321 455.82928 1324.0
-733.09503 454.10788 1319.0
-728.4158 455.82928 1324.0
-720.9576 455.82928 1324.0
-710.80493 454.10788 1319.0
-703.3749 454.10788 1319.0
-698.5831 455.82928 1324.0
-688.5149 454.10788 1319.0
-678.50305 452.38647 1314.0
-673.65485 454.10788 1319.0
-668.7503 455.82928 1324.0
-661.2922 455.82928 1324.0
-653.8339 455.82928 1324.0
-648.8168 457.55072 1329.0
-641.33044 457.55072 1329.0
-633.84406 457.55072 1329.0
-624.0013 455.82928 1324.0
-618.8714 457.55072 1329.0
-611.3851 457.55072 1329.0
-603.8987 457.55072 1329.0
-596.41235 457.55072 1329.0
-591.14166 459.27213 1334.0
-585.81464 460.99353 1339.0
-580.43134 462.7149 1344.0
-575.41797 464.78064 1350.0
-565.2896 462.7149 1344.0
-557.7188 462.7149 1344.0
-550.14795 462.7149 1344.0
-542.57715 462.7149 1344.0
-535.0063 462.7149 1344.0
-529.79004 464.78064 1350.0
-522.1854 464.78064 1350.0
-514.58075 464.78064 1350.0
-506.97614 464.78064 1350.0
-495.30255 460.99353 1339.0
-489.5812 462.7149 1344.0
-482.01038 462.7149 1344.0
-474.4395 462.7149 1344.0
-466.86868 462.7149 1344.0
-461.34833 464.78064 1350.0
-451.727 462.7149 1344.0
-444.15616 462.7149 1344.0
-436.5853 462.7149 1344.0
-430.92972 464.78064 1350.0
-423.3251 464.78064 1350.0
-415.72043 464.78064 1350.0
-409.62732 466.50204 1355.0
-401.99448 466.50204 1355.0
-392.9065 464.78064 1350.0
-385.30188 464.78064 1350.0
-379.0961 466.50204 1355.0
-371.4633 466.50204 1355.0
-362.48788 464.78064 1350.0
-356.19766 466.50204 1355.0
-348.5649 466.50204 1355.0
-340.93207 466.50204 1355.0
-333.29926 466.50204 1355.0
-326.86813 468.22345 1360.0
-319.20718 468.22345 1360.0
-310.40088 466.50204 1355.0
-302.768 466.50204 1355.0
-296.2243 468.22345 1360.0
-289.83636 470.28912 1366.0
-188.78288 314.6737 914.0
-183.63428 314.6737 914.0
-177.8998 313.64087 911.0
-173.33702 314.6737 914.0
-168.18837 314.6737 914.0
-163.03976 314.6737 914.0
-158.7549 316.3951 919.0
-153.91231 317.08368 921.0
-149.04723 317.77222 923.0
-145.09468 320.5265 931.0
-140.15073 321.21506 933.0
-136.05176 323.96933 941.0
-150.66579 468.22345 1360.0
-143.63574 470.28912 1366.0
-136.43852 472.01053 1371.0
-129.18503 473.73193 1376.0
-120.99269 472.01053 1371.0
-113.26972 472.01053 1371.0
-105.54681 472.01053 1371.0
-97.82384 472.01053 1371.0
-90.42952 473.73193 1376.0
-82.67844 473.73193 1376.0
-74.92731 473.73193 1376.0
-67.46914 475.79767 1382.0
-59.68421 475.79767 1382.0
-51.899334 475.79767 1382.0
-44.114456 475.79767 1382.0
-36.48725 477.86334 1388.0
-28.668571 477.86334 1388.0
-20.849842 477.86334 1388.0
-13.031164 477.86334 1388.0
-5.1899533 475.79767 1382.0
2.583661 473.73193 1376.0
10.379907 475.79767 1382.0
18.164787 475.79767 1382.0
26.062328 477.86334 1388.0
33.88101 477.86334 1388.0
41.8499 479.58475 1393.0
49.696846 479.58475 1393.0
57.54369 479.58475 1393.0
65.39053 479.58475 1393.0
73.23737 479.58475 1393.0
81.08422 479.58475 1393.0
89.31421 481.65042 1399.0
97.194855 481.65042 1399.0
105.0755 481.65042 1399.0
112.471695 479.58475 1393.0
120.318535 479.58475 1393.0
128.16548 479.58475 1393.0
136.59818 481.65042 1399.0
144.4788 481.65042 1399.0
152.35945 481.65042 1399.0
160.81277 483.37183 1404.0
168.12085 481.65042 1399.0
176.6305 483.37183 1404.0
184.5393 483.37183 1404.0
192.44812 483.37183 1404.0
200.35692 483.37183 1404.0
209.15585 485.43756 1410.0
218.0223 487.50323 1416.0
225.99869 487.50323 1416.0
233.9751 487.50323 1416.0
241.95149 487.50323 1416.0
250.98701 489.56894 1422.0
258.99722 489.56894 1422.0
265.8808 487.50323 1416.0
272.6968 485.43756 1410.0
280.6394 485.43756 1410.0
289.81012 487.50323 1416.0
297.78653 487.50323 1416.0
305.76294 487.50323 1416.0
315.06876 489.56894 1422.0
321.71573 487.50323 1416.0
329.69226 487.50323 1416.0
339.09943 489.56894 1422.0
347.10965 489.56894 1422.0
355.11987 489.56894 1422.0
364.66223 491.6346 1428.0
372.7064 491.6346 1428.0
382.35016 493.7003 1434.0
390.42795 493.7003 1434.0
398.50577 493.7003 1434.0
406.58356 493.7003 1434.0
414.66144 493.7003 1434.0
422.73923 493.7003 1434.0
430.81705 493.7003 1434.0
438.89487 493.7003 1434.0
446.97266 493.7003 1434.0
456.95453 495.76602 1440.0
465.06613 495.76602 1440.0
471.20615 493.7003 1434.0
479.28394 493.7003 1434.0
489.4009 495.76602 1440.0
497.5126 495.76602 1440.0
505.62424 495.76602 1440.0
513.73584 495.76602 1440.0
521.8474 495.76602 1440.0
529.959 495.76602 1440.0
535.82874 493.7003 1434.0
543.90656 493.7003 1434.0
554.2939 495.76602 1440.0
562.40546 495.76602 1440.0
570.5171 495.76602 1440.0
578.6288 495.76602 1440.0
589.1851 497.83167 1446.0
597.33057 497.83167 1446.0
607.9883 499.8974 1452.0
616.1675 499.8974 1452.0
621.76685 497.83167 1446.0
629.9122 497.83167 1446.0
640.70514 499.8974 1452.0
648.88434 499.8974 1452.0
659.7787 501.96307 1458.0
667.9918 501.96307 1458.0
676.2048 501.96307 1458.0
684.4178 501.96307 1458.0
692.63074 501.96307 1458.0
703.7279 504.02875 1464.0
711.9748 504.02875 1464.0
717.26984 501.96307 1458.0
725.48285 501.96307 1458.0
736.71515 504.02875 1464.0
744.962 504.02875 1464.0
753.2088 504.02875 1464.0
764.57635 506.09448 1470.0
776.53723 508.50446 1477.0
784.85724 508.50446 1477.0
789.4181 506.09448 1470.0
801.4974 508.50446 1477.0
809.81744 508.50446 1477.0
818.1374 508.50446 1477.0
822.5406 506.09448 1470.0
834.77747 508.50446 1477.0
839.10187 506.09448 1470.0
847.38245 506.09448 1470.0
859.7376 508.50446 1477.0
868.0576 508.50446 1477.0
876.3777 508.50446 1477.0
884.69775 508.50446 1477.0
-770.2451 446.6635 1319.0
-762.81506 446.6635 1319.0
-758.24854 448.3567 1324.0
-750.79034 448.3567 1324.0
-743.3321 448.3567 1324.0
-733.09503 446.6635 1319.0
-728.4158 448.3567 1324.0
-718.235 446.6635 1319.0
-710.80493 446.6635 1319.0
-703.3749 446.6635 1319.0
-698.5831 448.3567 1324.0
-691.1249 448.3567 1324.0
-683.6667 448.3567 1324.0
-676.20856 448.3567 1324.0
-668.7503 448.3567 1324.0
-661.2922 448.3567 1324.0
-653.8339 448.3567 1324.0
-648.8168 450.0499 1329.0
-641.33044 450.0499 1329.0
-633.84406 450.0499 1329.0
-626.3578 450.0499 1329.0
-618.8714 450.0499 1329.0
-611.3851 450.0499 1329.0
-603.8987 450.0499 1329.0
-596.41235 450.0499 1329.0
-591.14166 451.74307 1334.0
-583.62714 451.74307 1334.0
-578.272 453.43625 1339.0
-572.86053 455.12946 1344.0
-565.2896 455.12946 1344.0
-557.7188 455.12946 1344.0
-548.10126 453.43625 1339.0
-540.5586 453.43625 1339.0
-535.0063 455.12946 1344.0
-529.79004 457.1613 1350.0
-522.1854 457.1613 1350.0
-514.58075 457.1613 1350.0
-506.97614 457.1613 1350.0
-497.15207 455.12946 1344.0
-489.5812 455.12946 1344.0
-482.01038 455.12946 1344.0
-474.4395 455.12946 1344.0
-466.86868 455.12946 1344.0
-459.29785 455.12946 1344.0
-451.727 455.12946 1344.0
-444.15616 455.12946 1344.0
-436.5853 455.12946 1344.0
-430.92972 457.1613 1350.0
-423.3251 457.1613 1350.0
-413.87277 455.12946 1344.0
-408.11578 457.1613 1350.0
-401.99448 458.85446 1355.0
-394.3617 458.85446 1355.0
-386.72894 458.85446 1355.0
-379.0961 458.85446 1355.0
-370.09256 457.1613 1350.0
-363.83044 458.85446 1355.0
-354.8833 457.1613 1350.0
-348.5649 458.85446 1355.0
-339.674 457.1613 1350.0
-333.29926 458.85446 1355.0
-325.6664 458.85446 1355.0
-318.03363 458.85446 1355.0
-310.40088 458.85446 1355.0
-302.768 458.85446 1355.0
-296.2243 460.54767 1360.0
-186.71744 306.12875 904.0
-182.62971 307.82193 909.0
-177.50923 307.82193 909.0
-173.33702 309.5151 914.0
-168.18837 309.5151 914.0
-163.39653 310.19238 916.0
-158.7549 311.2083 919.0
-154.24654 312.56287 923.0
-149.04723 312.56287 923.0
-145.09468 315.27197 931.0
-140.15073 315.94925 933.0
-135.76259 317.98108 939.0
-150.66579 460.54767 1360.0
-144.16148 464.27267 1371.0
-136.43852 464.27267 1371.0
-128.7156 464.27267 1371.0
-120.99269 464.27267 1371.0
-113.682816 465.96588 1376.0
-105.93173 465.96588 1376.0
-98.1806 465.96588 1376.0
-90.42952 465.96588 1376.0
-82.67844 465.96588 1376.0
-74.92731 465.96588 1376.0
-67.17622 465.96588 1376.0
-59.42509 465.96588 1376.0
-51.899334 467.99768 1382.0
-44.305977 470.0295 1388.0
-36.329525 467.99768 1382.0
-28.668571 470.0295 1388.0
-20.849842 470.0295 1388.0
-13.078106 471.72272 1393.0
-5.212486 470.0295 1388.0
2.594927 467.99768 1382.0
10.334842 465.96588 1376.0
18.164787 467.99768 1382.0
26.062328 470.0295 1388.0
33.88101 470.0295 1388.0
41.699684 470.0295 1388.0
49.696846 471.72272 1393.0
57.54369 471.72272 1393.0
65.39053 471.72272 1393.0
73.23737 471.72272 1393.0
81.08422 471.72272 1393.0
88.93117 471.72272 1393.0
97.194855 473.75455 1399.0
104.62485 471.72272 1393.0
112.471695 471.72272 1393.0
120.318535 471.72272 1393.0
128.16548 471.72272 1393.0
136.59818 473.75455 1399.0
144.4788 473.75455 1399.0
152.35945 473.75455 1399.0
160.81277 475.44772 1404.0
168.12085 473.75455 1399.0
176.6305 475.44772 1404.0
184.5393 475.44772 1404.0
192.44812 475.44772 1404.0
200.35692 475.44772 1404.0
209.15585 477.47955 1410.0
217.09846 477.47955 1410.0
225.99869 479.51138 1416.0
233.9751 479.51138 1416.0
241.95149 479.51138 1416.0
250.98701 481.5432 1422.0
258.99722 481.5432 1422.0
265.8808 479.51138 1416.0
272.6968 477.47955 1410.0
281.83362 479.51138 1416.0
289.81012 479.51138 1416.0
297.78653 479.51138 1416.0
305.76294 479.51138 1416.0
313.73935 479.51138 1416.0
321.71573 479.51138 1416.0
329.69226 479.51138 1416.0
339.09943 481.5432 1422.0
347.10965 481.5432 1422.0
355.11987 481.5432 1422.0
364.66223 483.57504 1428.0
372.7064 483.57504 1428.0
382.35016 485.60687 1434.0
388.79437 483.57504 1428.0
398.50577 485.60687 1434.0
406.58356 485.60687 1434.0
414.66144 485.60687 1434.0
424.50806 487.6387 1440.0
430.81705 485.60687 1434.0
438.89487 485.60687 1434.0
448.84283 487.6387 1440.0
456.95453 487.6387 1440.0
465.06613 487.6387 1440.0
471.20615 485.60687 1434.0
479.28394 485.60687 1434.0
487.36176 485.60687 1434.0
497.5126 487.6387 1440.0
505.62424 487.6387 1440.0
513.73584 487.6387 1440.0
521.8474 487.6387 1440.0
529.959 487.6387 1440.0
535.82874 485.60687 1434.0
546.1823 487.6387 1440.0
554.2939 487.6387 1440.0
560.06213 485.60687 1434.0
568.13995 485.60687 1434.0
576.21783 485.60687 1434.0
586.7404 487.6387 1440.0
597.33057 489.67053 1446.0
605.47595 489.67053 1446.0
613.62134 489.67053 1446.0
621.76685 489.67053 1446.0
629.9122 489.67053 1446.0
638.0576 489.67053 1446.0
646.20306 489.67053 1446.0
657.0636 491.70236 1452.0
665.2428 491.70236 1452.0
676.2048 493.7342 1458.0
684.4178 493.7342 1458.0
692.63074 493.7342 1458.0
700.84375 493.7342 1458.0
711.9748 495.76602 1464.0
717.26984 493.7342 1458.0
725.48285 493.7342 1458.0
733.6958 493.7342 1458.0
744.962 495.76602 1464.0
753.2088 495.76602 1464.0
764.57635 497.79785 1470.0
772.85693 497.79785 1470.0
784.85724 500.1683 1477.0
789.4181 497.79785 1470.0
801.4974 500.1683 1477.0
809.81744 500.1683 1477.0
818.1374 500.1683 1477.0
822.5406 497.79785 1470.0
830.82117 497.79785 1470.0
839.10187 497.79785 1470.0
847.38245 497.79785 1470.0
859.7376 500.1683 1477.0
868.0576 500.1683 1477.0
872.2242 497.79785 1470.0
884.69775 500.1683 1477.0
-767.3253 437.55414 1314.0
-762.81506 439.21912 1319.0
-758.24854 440.8841 1324.0
-750.79034 440.8841 1324.0
-743.3321 440.8841 1324.0
-733.09503 439.21912 1319.0
-725.665 439.21912 1319.0
-718.235 439.21912 1319.0
-710.80493 439.21912 1319.0
-703.3749 439.21912 1319.0
-698.5831 440.8841 1324.0
-688.5149 439.21912 1319.0
-683.6667 440.8841 1324.0
-676.20856 440.8841 1324.0
-668.7503 440.8841 1324.0
-661.2922 440.8841 1324.0
-656.3031 442.54904 1329.0
-648.8168 442.54904 1329.0
-641.33044 442.54904 1329.0
-633.84406 442.54904 1329.0
-626.3578 442.54904 1329.0
-616.543 440.8841 1324.0
-613.68524 444.21402 1334.0
-608.44275 445.879 1339.0
-600.9 445.879 1339.0
-591.14166 444.21402 1334.0
-583.62714 444.21402 1334.0
-578.272 445.879 1339.0
-572.86053 447.54398 1344.0
-563.18665 445.879 1339.0
-557.7188 447.54398 1344.0
-548.10126 445.879 1339.0
-540.5586 445.879 1339.0
-535.0063 447.54398 1344.0
-529.79004 449.54193 1350.0
-522.1854 449.54193 1350.0
-514.58075 449.54193 1350.0
-506.97614 449.54193 1350.0
-497.15207 447.54398 1344.0
-489.5812 447.54398 1344.0
-482.01038 447.54398 1344.0
-474.4395 447.54398 1344.0
-466.86868 447.54398 1344.0
-459.29785 447.54398 1344.0
-451.727 447.54398 1344.0
-444.15616 447.54398 1344.0
-436.5853 447.54398 1344.0
-429.01447 447.54398 1344.0
-423.3251 449.54193 1350.0
-415.72043 449.54193 1350.0
-408.11578 449.54193 1350.0
-398.73108 447.54398 1344.0
-392.9065 449.54193 1350.0
-385.30188 449.54193 1350.0
-379.0961 451.2069 1355.0
-371.4633 451.2069 1355.0
-363.83044 451.2069 1355.0
-356.19766 451.2069 1355.0
-347.2787 449.54193 1350.0
-340.93207 451.2069 1355.0
-334.52914 452.87186 1360.0
-326.86813 452.87186 1360.0
-318.03363 451.2069 1355.0
-309.25546 449.54193 1350.0
-302.768 451.2069 1355.0
-296.2243 452.87186 1360.0
-289.83636 454.8698 1366.0
-186.71744 301.0266 904.0
-182.22787 302.0256 907.0
-177.50923 302.69156 909.0
-172.76808 303.35754 911.0
-168.18837 304.35654 914.0
-163.93167 306.0215 919.0
-158.7549 306.0215 919.0
-153.91231 306.6875 921.0
-149.04723 307.3535 923.0
-145.40637 310.68344 933.0
-140.15073 310.68344 933.0
-135.76259 312.6814 939.0
-144.16148 456.5348 1371.0
-136.43852 456.5348 1371.0
-128.7156 456.5348 1371.0
-120.55144 454.8698 1366.0
-113.682816 458.19977 1376.0
-105.93173 458.19977 1376.0
-98.1806 458.19977 1376.0
-90.42952 458.19977 1376.0
-82.67844 458.19977 1376.0
-74.92731 458.19977 1376.0
-67.17622 458.19977 1376.0
-59.68421 460.19775 1382.0
-51.899334 460.19775 1382.0
-44.114456 460.19775 1382.0
-36.329525 460.19775 1382.0
-28.544643 460.19775 1382.0
-20.759714 460.19775 1382.0
-13.078106 463.8607 1393.0
-5.212486 462.1957 1388.0
2.583661 458.19977 1376.0
10.379907 460.19775 1382.0
18.164787 460.19775 1382.0
25.949667 460.19775 1382.0
33.88101 462.1957 1388.0
41.51943 460.19775 1382.0
49.518463 462.1957 1388.0
57.337143 462.1957 1388.0
65.39053 463.8607 1393.0
73.23737 463.8607 1393.0
81.08422 463.8607 1393.0
88.93117 463.8607 1393.0
96.77801 463.8607 1393.0
104.62485 463.8607 1393.0
112.471695 463.8607 1393.0
120.318535 463.8607 1393.0
128.71753 465.85867 1399.0
136.59818 465.85867 1399.0
144.4788 465.85867 1399.0
152.35945 465.85867 1399.0
160.24008 465.85867 1399.0
168.72171 467.52362 1404.0
176.6305 467.52362 1404.0
184.5393 467.52362 1404.0
192.44812 467.52362 1404.0
200.35692 467.52362 1404.0
208.26584 467.52362 1404.0
217.09846 469.52158 1410.0
225.99869 471.51956 1416.0
233.9751 471.51956 1416.0
241.95149 471.51956 1416.0
249.92801 471.51956 1416.0
257.90442 471.51956 1416.0
264.7542 469.52158 1410.0
272.6968 469.52158 1410.0
281.83362 471.51956 1416.0
289.81012 471.51956 1416.0
299.04834 473.5175 1422.0
307.05853 473.5175 1422.0
313.73935 471.51956 1416.0
321.71573 471.51956 1416.0
329.69226 471.51956 1416.0
339.09943 473.5175 1422.0
348.57425 475.51547 1428.0
356.61826 475.51547 1428.0
364.66223 475.51547 1428.0
372.7064 475.51547 1428.0
382.35016 477.51346 1434.0
388.79437 475.51547 1428.0
396.83835 475.51547 1428.0
406.58356 477.51346 1434.0
414.66144 477.51346 1434.0
424.50806 479.51138 1440.0
430.81705 477.51346 1434.0
438.89487 477.51346 1434.0
446.97266 477.51346 1434.0
456.95453 479.51138 1440.0
465.06613 479.51138 1440.0
471.20615 477.51346 1434.0
481.2893 479.51138 1440.0
489.4009 479.51138 1440.0
497.5126 479.51138 1440.0
505.62424 479.51138 1440.0
513.73584 479.51138 1440.0
524.0218 481.50937 1446.0
532.1672 481.50937 1446.0
538.0707 479.51138 1440.0
546.1823 479.51138 1440.0
554.2939 479.51138 1440.0
560.06213 477.51346 1434.0
570.5171 479.51138 1440.0
576.21783 477.51346 1434.0
586.7404 479.51138 1440.0
597.33057 481.50937 1446.0
605.47595 481.50937 1446.0
613.62134 481.50937 1446.0
621.76685 481.50937 1446.0
632.526 483.5073 1452.0
640.70514 483.5073 1452.0
646.20306 481.50937 1446.0
657.0636 483.5073 1452.0
665.2428 483.5073 1452.0
676.2048 485.50528 1458.0
681.60126 483.5073 1452.0
689.7804 483.5073 1452.0
700.84375 485.50528 1458.0
711.9748 487.50327 1464.0
720.22156 487.50327 1464.0
725.48285 485.50528 1458.0
733.6958 485.50528 1458.0
744.962 487.50327 1464.0
753.2088 487.50327 1464.0
768.2172 491.83215 1477.0
772.85693 489.50122 1470.0
781.1376 489.50122 1470.0
789.4181 489.50122 1470.0
801.4974 491.83215 1477.0
809.81744 491.83215 1477.0
818.1374 491.83215 1477.0
822.5406 489.50122 1470.0
830.82117 489.50122 1470.0
839.10187 489.50122 1470.0
847.38245 489.50122 1470.0
859.7376 491.83215 1477.0
868.0576 491.83215 1477.0
876.3777 491.83215 1477.0
888.2917 493.83014 1483.0
-767.3253 430.13797 1314.0
-759.9234 430.13797 1314.0
-755.3851 431.77472 1319.0
-747.955 431.77472 1319.0
-743.3321 433.41147 1324.0
-735.874 433.41147 1324.0
-728.4158 433.41147 1324.0
-718.235 431.77472 1319.0
-710.80493 431.77472 1319.0
-703.3749 431.77472 1319.0
-693.3068 430.13797 1314.0
-688.5149 431.77472 1319.0
-683.6667 433.41147 1324.0
-676.20856 433.41147 1324.0
-668.7503 433.41147 1324.0
-661.2922 433.41147 1324.0
-656.3031 435.04822 1329.0
-646.3758 433.41147 1324.0
-641.33044 435.04822 1329.0
-631.45935 433.41147 1324.0
-626.3578 435.04822 1329.0
-618.8714 435.04822 1329.0
-613.68524 436.68497 1334.0
-608.44275 438.32172 1339.0
-600.9 438.32172 1339.0
-591.14166 436.68497 1334.0
-583.62714 436.68497 1334.0
-576.1127 436.68497 1334.0
-572.86053 439.9585 1344.0
-565.2896 439.9585 1344.0
-557.7188 439.9585 1344.0
