ply
format ascii 1.0
element vertex 1719
property float x
property float y
property float z
end_header
-273.24136 230.27383 1360.0
-265.58035 230.27383 1360.0
-257.91943 230.27383 1360.0
-249.33835 229.42723 1355.0
-241.70557 229.42723 1355.0
-234.07277 229.42723 1355.0
-226.43993 229.42723 1355.0
-218.80716 229.42723 1355.0
-211.17432 229.42723 1355.0
-203.54153 229.42723 1355.0
-195.90874 229.42723 1355.0
-188.2759 229.42723 1355.0
-180.64313 229.42723 1355.0
-126.02298 167.11784 987.0
-120.46316 167.11784 987.0
-115.252594 167.62581 990.0
-127.213455 229.42723 1355.0
-120.02192 230.27383 1360.0
-112.36092 230.27383 1360.0
-104.69997 230.27383 1360.0
-97.03897 230.27383 1360.0
-89.77233 231.28975 1366.0
-82.077576 231.28975 1366.0
-74.382774 231.28975 1366.0
-66.68803 231.28975 1366.0
-59.42509 232.98294 1376.0
-51.298473 231.28975 1366.0
-43.763325 232.13634 1371.0
-36.04036 232.13634 1371.0
-28.317442 232.13634 1371.0
-20.669584 232.98294 1376.0
-12.824618 231.28975 1366.0
-5.148644 232.13634 1371.0
2.5648844 231.28975 1366.0
10.297288 232.13634 1371.0
18.020205 232.13634 1371.0
25.743122 232.13634 1371.0
33.466038 232.13634 1371.0
41.188953 232.13634 1371.0
49.09035 232.98294 1376.0
56.841434 232.98294 1376.0
64.592514 232.98294 1376.0
72.3436 232.98294 1376.0
80.09467 232.98294 1376.0
88.22891 233.99884 1382.0
96.01379 233.99884 1382.0
103.79867 233.99884 1382.0
111.58355 233.99884 1382.0
119.36842 233.99884 1382.0
127.15341 233.99884 1382.0
134.93828 233.99884 1382.0
142.72318 233.99884 1382.0
151.16148 235.01476 1388.0
159.55286 235.86136 1393.0
167.3998 235.86136 1393.0
175.24664 235.86136 1393.0
183.09349 235.86136 1393.0
191.76277 236.87727 1399.0
199.6434 236.87727 1399.0
207.52415 236.87727 1399.0
215.40479 236.87727 1399.0
223.28543 236.87727 1399.0
231.16608 236.87727 1399.0
239.0467 236.87727 1399.0
247.80998 237.72386 1404.0
255.71878 237.72386 1404.0
262.68875 236.87727 1399.0
270.5694 236.87727 1399.0
278.45 236.87727 1399.0
286.33078 236.87727 1399.0
294.2114 236.87727 1399.0
304.46732 238.73978 1410.0
312.4099 238.73978 1410.0
320.35254 238.73978 1410.0
328.29526 238.73978 1410.0
336.23788 238.73978 1410.0
344.18045 238.73978 1410.0
352.12305 238.73978 1410.0
360.06567 238.73978 1410.0
368.00836 238.73978 1410.0
377.55078 239.75569 1416.0
387.16077 240.7716 1422.0
395.171 240.7716 1422.0
401.47998 239.75569 1416.0
409.45648 239.75569 1416.0
419.20166 240.7716 1422.0
429.01447 241.78752 1428.0
437.05847 241.78752 1428.0
445.10245 241.78752 1428.0
455.05054 242.80344 1434.0
463.12833 242.80344 1434.0
471.20615 242.80344 1434.0
479.28394 242.80344 1434.0
487.36176 242.80344 1434.0
497.5126 243.81935 1440.0
505.62424 243.81935 1440.0
511.59525 242.80344 1434.0
521.8474 243.81935 1440.0
529.959 243.81935 1440.0
535.82874 242.80344 1434.0
543.90656 242.80344 1434.0
551.9843 242.80344 1434.0
560.06213 242.80344 1434.0
570.5171 243.81935 1440.0
578.6288 243.81935 1440.0
586.7404 243.81935 1440.0
594.852 243.81935 1440.0
605.47595 244.83527 1446.0
611.0752 243.81935 1440.0
619.1869 243.81935 1440.0
629.9122 244.83527 1446.0
640.70514 245.85118 1452.0
646.20306 244.83527 1446.0
657.0636 245.85118 1452.0
665.2428 245.85118 1452.0
673.42206 245.85118 1452.0
681.60126 245.85118 1452.0
689.7804 245.85118 1452.0
697.95966 245.85118 1452.0
706.1389 245.85118 1452.0
717.26984 246.8671 1458.0
725.48285 246.8671 1458.0
733.6958 246.8671 1458.0
738.8557 245.85118 1452.0
747.035 245.85118 1452.0
758.3349 246.8671 1458.0
766.5479 246.8671 1458.0
774.76086 246.8671 1458.0
782.9739 246.8671 1458.0
787.931 245.85118 1452.0
799.39996 246.8671 1458.0
807.613 246.8671 1458.0
812.4686 245.85118 1452.0
824.03894 246.8671 1458.0
832.2521 246.8671 1458.0
840.465 246.8671 1458.0
852.17053 247.88301 1464.0
863.94366 248.89893 1470.0
872.2242 248.89893 1470.0
884.69775 250.08415 1477.0
-764.4055 214.25061 1309.0
-757.03174 214.25061 1309.0
-749.6581 214.25061 1309.0
-739.4491 213.43224 1304.0
-734.91064 214.25061 1309.0
-724.7581 213.43224 1304.0
-722.9141 215.06898 1314.0
-718.235 215.88736 1319.0
-708.1105 215.06898 1314.0
-703.3749 215.88736 1319.0
-695.94495 215.88736 1319.0
-688.5149 215.88736 1319.0
-681.0849 215.88736 1319.0
-673.65485 215.88736 1319.0
-668.7503 216.70573 1324.0
-663.78955 217.52411 1329.0
-653.8339 216.70573 1324.0
-643.9348 215.88736 1319.0
-636.50476 215.88736 1319.0
-631.45935 216.70573 1324.0
-624.0013 216.70573 1324.0
-618.8714 217.52411 1329.0
-611.3851 217.52411 1329.0
-606.1707 218.34248 1334.0
-598.6562 218.34248 1334.0
-591.14166 218.34248 1334.0
-579.25214 216.70573 1324.0
-571.79395 216.70573 1324.0
-566.467 217.52411 1329.0
-561.0836 218.34248 1334.0
-553.5691 218.34248 1334.0
-546.05457 218.34248 1334.0
-538.5401 218.34248 1334.0
-531.0256 218.34248 1334.0
-523.51105 218.34248 1334.0
-517.9306 219.16086 1339.0
-512.2937 219.97925 1344.0
-504.7229 219.97925 1344.0
-493.45303 218.34248 1334.0
-487.75986 219.16086 1339.0
-480.2172 219.16086 1339.0
-472.67447 219.16086 1339.0
-465.1318 219.16086 1339.0
-457.58914 219.16086 1339.0
-450.04645 219.16086 1339.0
-442.50378 219.16086 1339.0
-434.9611 219.16086 1339.0
-427.41843 219.16086 1339.0
-419.87576 219.16086 1339.0
-413.87277 219.97925 1344.0
-406.30194 219.97925 1344.0
-400.5111 220.9613 1350.0
-391.16025 219.97925 1344.0
-385.30188 220.9613 1350.0
-377.6972 220.9613 1350.0
-370.09256 220.9613 1350.0
-362.48788 220.9613 1350.0
-354.8833 220.9613 1350.0
-348.5649 221.77968 1355.0
-340.93207 221.77968 1355.0
-333.29926 221.77968 1355.0
-325.6664 221.77968 1355.0
-318.03363 221.77968 1355.0
-310.40088 221.77968 1355.0
-303.88522 222.59805 1360.0
-296.2243 222.59805 1360.0
-288.5633 222.59805 1360.0
-279.8696 221.77968 1355.0
-273.24136 222.59805 1360.0
-265.58035 222.59805 1360.0
-257.91943 222.59805 1360.0
-249.33835 221.77968 1355.0
-241.70557 221.77968 1355.0
-233.20903 220.9613 1350.0
-226.43993 221.77968 1355.0
-218.80716 221.77968 1355.0
-211.17432 221.77968 1355.0
-203.54153 221.77968 1355.0
-195.90874 221.77968 1355.0
-188.2759 221.77968 1355.0
-131.98279 162.03827 990.0
-126.02298 161.54726 987.0
-120.82931 162.03827 990.0
-127.213455 221.77968 1355.0
-120.02192 222.59805 1360.0
-112.36092 222.59805 1360.0
-104.69997 222.59805 1360.0
-97.03897 222.59805 1360.0
-89.77233 223.5801 1366.0
-82.077576 223.5801 1366.0
-74.382774 223.5801 1366.0
-66.68803 223.5801 1366.0
-58.734104 222.59805 1360.0
-51.07315 222.59805 1360.0
-43.60372 223.5801 1366.0
-36.04036 224.39847 1371.0
-28.420717 225.21684 1376.0
-20.669584 225.21684 1376.0
-12.871561 224.39847 1371.0
-5.148644 224.39847 1371.0
2.5648844 223.5801 1366.0
10.297288 224.39847 1371.0
18.020205 224.39847 1371.0
25.743122 224.39847 1371.0
33.466038 224.39847 1371.0
41.188953 224.39847 1371.0
48.91197 224.39847 1371.0
56.634884 224.39847 1371.0
64.592514 225.21684 1376.0
72.3436 225.21684 1376.0
80.09467 225.21684 1376.0
88.22891 226.19888 1382.0
96.01379 226.19888 1382.0
103.79867 226.19888 1382.0
112.06799 227.18095 1388.0
119.88667 227.18095 1388.0
127.15341 226.19888 1382.0
134.93828 226.19888 1382.0
142.72318 226.19888 1382.0
151.16148 227.18095 1388.0
158.98016 227.18095 1388.0
167.3998 227.99933 1393.0
175.24664 227.99933 1393.0
183.09349 227.99933 1393.0
191.76277 228.98137 1399.0
199.6434 228.98137 1399.0
207.52415 228.98137 1399.0
215.40479 228.98137 1399.0
223.28543 228.98137 1399.0
231.16608 228.98137 1399.0
239.0467 228.98137 1399.0
246.92746 228.98137 1399.0
254.80809 228.98137 1399.0
262.68875 228.98137 1399.0
271.5364 229.79974 1404.0
279.4452 229.79974 1404.0
287.35413 229.79974 1404.0
294.2114 228.98137 1399.0
303.17172 229.79974 1404.0
311.08054 229.79974 1404.0
320.35254 230.7818 1410.0
328.29526 230.7818 1410.0
336.23788 230.7818 1410.0
344.18045 230.7818 1410.0
352.12305 230.7818 1410.0
360.06567 230.7818 1410.0
369.57437 231.76382 1416.0
377.55078 231.76382 1416.0
385.5272 231.76382 1416.0
393.50357 231.76382 1416.0
401.47998 231.76382 1416.0
409.45648 231.76382 1416.0
417.4329 231.76382 1416.0
425.4093 231.76382 1416.0
435.2221 232.74591 1422.0
445.10245 233.72795 1428.0
455.05054 234.70999 1434.0
463.12833 234.70999 1434.0
471.20615 234.70999 1434.0
479.28394 234.70999 1434.0
487.36176 234.70999 1434.0
497.5126 235.69203 1440.0
503.51743 234.70999 1434.0
511.59525 234.70999 1434.0
521.8474 235.69203 1440.0
529.959 235.69203 1440.0
535.82874 234.70999 1434.0
543.90656 234.70999 1434.0
551.9843 234.70999 1434.0
560.06213 234.70999 1434.0
570.5171 235.69203 1440.0
576.21783 234.70999 1434.0
586.7404 235.69203 1440.0
594.852 235.69203 1440.0
602.96356 235.69203 1440.0
611.0752 235.69203 1440.0
621.76685 236.67409 1446.0
629.9122 236.67409 1446.0
638.0576 236.67409 1446.0
646.20306 236.67409 1446.0
654.3484 236.67409 1446.0
662.4939 236.67409 1446.0
670.6393 236.67409 1446.0
678.7847 236.67409 1446.0
689.7804 237.65616 1452.0
697.95966 237.65616 1452.0
706.1389 237.65616 1452.0
714.3181 237.65616 1452.0
725.48285 238.6382 1458.0
733.6958 238.6382 1458.0
741.9088 238.6382 1458.0
750.12195 238.6382 1458.0
758.3349 238.6382 1458.0
766.5479 238.6382 1458.0
774.76086 238.6382 1458.0
782.9739 238.6382 1458.0
791.187 238.6382 1458.0
799.39996 238.6382 1458.0
807.613 238.6382 1458.0
812.4686 237.65616 1452.0
827.43005 239.62024 1464.0
835.67694 239.62024 1464.0
843.92377 239.62024 1464.0
852.17053 239.62024 1464.0
863.94366 240.6023 1470.0
872.2242 240.6023 1470.0
880.50494 240.6023 1470.0
-764.4055 206.86267 1309.0
-757.03174 206.86267 1309.0
-749.6581 206.86267 1309.0
-739.4491 206.07251 1304.0
-734.91064 206.86267 1309.0
-727.53705 206.86267 1309.0
-722.9141 207.65282 1314.0
-718.235 208.44298 1319.0
-710.80493 208.44298 1319.0
-703.3749 208.44298 1319.0
-695.94495 208.44298 1319.0
-688.5149 208.44298 1319.0
-678.50305 207.65282 1314.0
-673.65485 208.44298 1319.0
-666.2248 208.44298 1319.0
-661.2922 209.23314 1324.0
-653.8339 209.23314 1324.0
-646.3758 209.23314 1324.0
-638.9176 209.23314 1324.0
-631.45935 209.23314 1324.0
-624.0013 209.23314 1324.0
-618.8714 210.02328 1329.0
-611.3851 210.02328 1329.0
-606.1707 210.81345 1334.0
-598.6562 210.81345 1334.0
-588.926 210.02328 1329.0
-579.25214 209.23314 1324.0
-571.79395 209.23314 1324.0
-568.59814 210.81345 1334.0
-561.0836 210.81345 1334.0
-553.5691 210.81345 1334.0
-546.05457 210.81345 1334.0
-538.5401 210.81345 1334.0
-531.0256 210.81345 1334.0
-523.51105 210.81345 1334.0
-517.9306 211.6036 1339.0
-512.2937 212.39375 1344.0
-504.7229 212.39375 1344.0
-493.45303 210.81345 1334.0
-487.75986 211.6036 1339.0
-480.2172 211.6036 1339.0
-472.67447 211.6036 1339.0
-465.1318 211.6036 1339.0
-457.58914 211.6036 1339.0
-450.04645 211.6036 1339.0
-442.50378 211.6036 1339.0
-436.5853 212.39375 1344.0
-429.01447 212.39375 1344.0
-421.44363 212.39375 1344.0
-413.87277 212.39375 1344.0
-406.30194 212.39375 1344.0
-398.73108 212.39375 1344.0
-391.16025 212.39375 1344.0
-385.30188 213.34195 1350.0
-377.6972 213.34195 1350.0
-370.09256 213.34195 1350.0
-362.48788 213.34195 1350.0
-353.30603 212.39375 1344.0
-347.2787 213.34195 1350.0
-340.93207 214.1321 1355.0
-333.29926 214.1321 1355.0
-325.6664 214.1321 1355.0
-316.86008 213.34195 1350.0
-310.40088 214.1321 1355.0
-302.768 214.1321 1355.0
-295.13522 214.1321 1355.0
-287.50238 214.1321 1355.0
-279.8696 214.1321 1355.0
-273.24136 214.92226 1360.0
-265.58035 214.92226 1360.0
-257.91943 214.92226 1360.0
-248.41829 213.34195 1350.0
-240.81366 213.34195 1350.0
-233.20903 213.34195 1350.0
-226.43993 214.1321 1355.0
-218.80716 214.1321 1355.0
-211.17432 214.1321 1355.0
-203.54153 214.1321 1355.0
-195.90874 214.1321 1355.0
-188.2759 214.1321 1355.0
-131.98279 156.45076 990.0
-126.40603 156.45076 990.0
-121.43956 157.24092 995.0
-127.68288 214.92226 1360.0
-120.02192 214.92226 1360.0
-112.36092 214.92226 1360.0
-104.69997 214.92226 1360.0
-97.46708 215.87044 1366.0
-89.77233 215.87044 1366.0
-81.71706 214.92226 1360.0
-74.05606 214.92226 1360.0
-66.3951 214.92226 1360.0
-59.20916 216.6606 1371.0
-51.298473 215.87044 1366.0
-43.60372 215.87044 1366.0
-35.908924 215.87044 1366.0
-28.317442 216.6606 1371.0
-20.669584 217.45076 1376.0
-12.918503 217.45076 1376.0
-5.148644 216.6606 1371.0
2.5648844 215.87044 1366.0
10.297288 216.6606 1371.0
18.020205 216.6606 1371.0
25.743122 216.6606 1371.0
33.466038 216.6606 1371.0
41.188953 216.6606 1371.0
48.91197 216.6606 1371.0
56.634884 216.6606 1371.0
64.3578 216.6606 1371.0
72.3436 217.45076 1376.0
80.443924 218.39894 1382.0
88.22891 218.39894 1382.0
95.59694 217.45076 1376.0
103.34802 217.45076 1376.0
111.58355 218.39894 1382.0
119.36842 218.39894 1382.0
127.15341 218.39894 1382.0
134.93828 218.39894 1382.0
142.72318 218.39894 1382.0
151.16148 219.34712 1388.0
158.98016 219.34712 1388.0
167.3998 220.13727 1393.0
175.24664 220.13727 1393.0
183.09349 220.13727 1393.0
190.94034 220.13727 1393.0
198.78717 220.13727 1393.0
207.52415 221.08546 1399.0
215.40479 221.08546 1399.0
223.28543 221.08546 1399.0
231.16608 221.08546 1399.0
239.0467 221.08546 1399.0
246.92746 221.08546 1399.0
254.80809 221.08546 1399.0
261.56213 220.13727 1393.0
270.5694 221.08546 1399.0
278.45 221.08546 1399.0
286.33078 221.08546 1399.0
294.2114 221.08546 1399.0
303.17172 221.87563 1404.0
311.08054 221.87563 1404.0
320.35254 222.8238 1410.0
328.29526 222.8238 1410.0
336.23788 222.8238 1410.0
344.18045 222.8238 1410.0
352.12305 222.8238 1410.0
360.06567 222.8238 1410.0
369.57437 223.772 1416.0
377.55078 223.772 1416.0
385.5272 223.772 1416.0
393.50357 223.772 1416.0
401.47998 223.772 1416.0
409.45648 223.772 1416.0
417.4329 223.772 1416.0
427.21188 224.72018 1422.0
437.05847 225.66838 1428.0
446.97266 226.61655 1434.0
455.05054 226.61655 1434.0
463.12833 226.61655 1434.0
471.20615 226.61655 1434.0
481.2893 227.56474 1440.0
489.4009 227.56474 1440.0
497.5126 227.56474 1440.0
503.51743 226.61655 1434.0
511.59525 226.61655 1434.0
521.8474 227.56474 1440.0
529.959 227.56474 1440.0
535.82874 226.61655 1434.0
546.1823 227.56474 1440.0
551.9843 226.61655 1434.0
560.06213 226.61655 1434.0
570.5171 227.56474 1440.0
578.6288 227.56474 1440.0
586.7404 227.56474 1440.0
594.852 227.56474 1440.0
602.96356 227.56474 1440.0
613.62134 228.51292 1446.0
621.76685 228.51292 1446.0
627.29846 227.56474 1440.0
638.0576 228.51292 1446.0
646.20306 228.51292 1446.0
654.3484 228.51292 1446.0
662.4939 228.51292 1446.0
670.6393 228.51292 1446.0
681.60126 229.46112 1452.0
689.7804 229.46112 1452.0
697.95966 229.46112 1452.0
706.1389 229.46112 1452.0
714.3181 229.46112 1452.0
722.4973 229.46112 1452.0
733.6958 230.4093 1458.0
741.9088 230.4093 1458.0
750.12195 230.4093 1458.0
758.3349 230.4093 1458.0
766.5479 230.4093 1458.0
774.76086 230.4093 1458.0
779.75183 229.46112 1452.0
791.187 230.4093 1458.0
799.39996 230.4093 1458.0
810.93646 231.35748 1464.0
812.4686 229.46112 1452.0
820.6479 229.46112 1452.0
832.2521 230.4093 1458.0
843.92377 231.35748 1464.0
848.67804 230.4093 1458.0
860.41736 231.35748 1464.0
872.2242 232.30568 1470.0
880.50494 232.30568 1470.0
-767.3253 200.23663 1314.0
-754.14014 198.71275 1304.0
-749.6581 199.4747 1309.0
-742.2844 199.4747 1309.0
-734.91064 199.4747 1309.0
-724.7581 198.71275 1304.0
-720.1633 199.4747 1309.0
-715.5123 200.23663 1314.0
-705.416 199.4747 1309.0
-700.70856 200.23663 1314.0
-695.94495 200.99857 1319.0
-685.9049 200.23663 1314.0
-675.9212 199.4747 1309.0
-673.65485 200.99857 1319.0
-666.2248 200.99857 1319.0
-661.2922 201.7605 1324.0
-653.8339 201.7605 1324.0
-643.9348 200.99857 1319.0
-638.9176 201.7605 1324.0
-631.45935 201.7605 1324.0
-624.0013 201.7605 1324.0
-616.543 201.7605 1324.0
-611.3851 202.52243 1329.0
-603.8987 202.52243 1329.0
-598.6562 203.28438 1334.0
-588.926 202.52243 1329.0
-581.43964 202.52243 1329.0
-573.9533 202.52243 1329.0
-566.467 202.52243 1329.0
-558.9806 202.52243 1329.0
-551.49426 202.52243 1329.0
-546.05457 203.28438 1334.0
-538.5401 203.28438 1334.0
-531.0256 203.28438 1334.0
-523.51105 203.28438 1334.0
-517.9306 204.04631 1339.0
-510.38788 204.04631 1339.0
-504.7229 204.80824 1344.0
-495.30255 204.04631 1339.0
-485.93848 203.28438 1334.0
-480.2172 204.04631 1339.0
-472.67447 204.04631 1339.0
-465.1318 204.04631 1339.0
-457.58914 204.04631 1339.0
-448.36594 203.28438 1334.0
-442.50378 204.04631 1339.0
-436.5853 204.80824 1344.0
-429.01447 204.80824 1344.0
-421.44363 204.80824 1344.0
-413.87277 204.80824 1344.0
-406.30194 204.80824 1344.0
-398.73108 204.80824 1344.0
-391.16025 204.80824 1344.0
-383.58942 204.80824 1344.0
-377.6972 205.72256 1350.0
-370.09256 205.72256 1350.0
-362.48788 205.72256 1350.0
-353.30603 204.80824 1344.0
-347.2787 205.72256 1350.0
-339.674 205.72256 1350.0
-332.06937 205.72256 1350.0
-325.6664 206.4845 1355.0
-316.86008 205.72256 1350.0
-309.25546 205.72256 1350.0
-302.768 206.4845 1355.0
-295.13522 206.4845 1355.0
-287.50238 206.4845 1355.0
-279.8696 206.4845 1355.0
-272.23682 206.4845 1355.0
-264.60397 206.4845 1355.0
-257.91943 207.24643 1360.0
-248.41829 205.72256 1350.0
-240.81366 205.72256 1350.0
-233.20903 205.72256 1350.0
-226.43993 206.4845 1355.0
-218.80716 206.4845 1355.0
-211.17432 206.4845 1355.0
-203.54153 206.4845 1355.0
-195.90874 206.4845 1355.0
-188.2759 206.4845 1355.0
-131.98279 150.8632 990.0
-126.02298 150.40605 987.0
-120.82931 150.8632 990.0
-134.84624 206.4845 1355.0
-127.68288 207.24643 1360.0
-120.02192 207.24643 1360.0
-112.36092 207.24643 1360.0
-104.69997 207.24643 1360.0
-97.46708 208.16075 1366.0
-89.77233 208.16075 1366.0
-81.71706 207.24643 1360.0
-74.05606 207.24643 1360.0
-66.3951 207.24643 1360.0
-58.993225 208.16075 1366.0
-51.298473 208.16075 1366.0
-43.60372 208.16075 1366.0
-35.908924 208.16075 1366.0
-28.317442 208.92268 1371.0
-20.594477 208.92268 1371.0
-12.871561 208.92268 1371.0
-5.148644 208.92268 1371.0
2.5648844 208.16075 1366.0
10.297288 208.92268 1371.0
18.020205 208.92268 1371.0
25.743122 208.92268 1371.0
33.466038 208.92268 1371.0
41.188953 208.92268 1371.0
48.91197 208.92268 1371.0
56.634884 208.92268 1371.0
64.3578 208.92268 1371.0
72.3436 209.68463 1376.0
80.09467 209.68463 1376.0
88.22891 210.59894 1382.0
96.01379 210.59894 1382.0
103.34802 209.68463 1376.0
111.099106 209.68463 1376.0
118.85018 209.68463 1376.0
127.15341 210.59894 1382.0
134.93828 210.59894 1382.0
143.3428 211.51328 1388.0
151.16148 211.51328 1388.0
159.55286 212.2752 1393.0
167.3998 212.2752 1393.0
175.24664 212.2752 1393.0
183.09349 212.2752 1393.0
190.94034 212.2752 1393.0
198.78717 212.2752 1393.0
206.63412 212.2752 1393.0
214.48096 212.2752 1393.0
222.3278 212.2752 1393.0
231.16608 213.18953 1399.0
239.0467 213.18953 1399.0
246.92746 213.18953 1399.0
254.80809 213.18953 1399.0
261.56213 212.2752 1393.0
269.40897 212.2752 1393.0
278.45 213.18953 1399.0
287.35413 213.95146 1404.0
294.2114 213.18953 1399.0
302.09204 213.18953 1399.0
311.08054 213.95146 1404.0
320.35254 214.86578 1410.0
328.29526 214.86578 1410.0
336.23788 214.86578 1410.0
344.18045 214.86578 1410.0
350.62466 213.95146 1404.0
360.06567 214.86578 1410.0
368.00836 214.86578 1410.0
375.951 214.86578 1410.0
383.8936 214.86578 1410.0
391.83618 214.86578 1410.0
401.47998 215.7801 1416.0
411.1915 216.69443 1422.0
419.20166 216.69443 1422.0
427.21188 216.69443 1422.0
437.05847 217.60875 1428.0
446.97266 218.52309 1434.0
455.05054 218.52309 1434.0
461.19058 217.60875 1428.0
473.17773 219.4374 1440.0
479.28394 218.52309 1434.0
489.4009 219.4374 1440.0
497.5126 219.4374 1440.0
503.51743 218.52309 1434.0
513.73584 219.4374 1440.0
521.8474 219.4374 1440.0
532.1672 220.35172 1446.0
535.82874 218.52309 1434.0
543.90656 218.52309 1434.0
551.9843 218.52309 1434.0
560.06213 218.52309 1434.0
570.5171 219.4374 1440.0
578.6288 219.4374 1440.0
586.7404 219.4374 1440.0
592.3734 218.52309 1434.0
602.96356 219.4374 1440.0
613.62134 220.35172 1446.0
619.1869 219.4374 1440.0
627.29846 219.4374 1440.0
635.4101 219.4374 1440.0
646.20306 220.35172 1446.0
654.3484 220.35172 1446.0
662.4939 220.35172 1446.0
670.6393 220.35172 1446.0
678.7847 220.35172 1446.0
689.7804 221.26604 1452.0
697.95966 221.26604 1452.0
706.1389 221.26604 1452.0
714.3181 221.26604 1452.0
722.4973 221.26604 1452.0
730.6765 221.26604 1452.0
738.8557 221.26604 1452.0
750.12195 222.18036 1458.0
758.3349 222.18036 1458.0
766.5479 222.18036 1458.0
774.76086 222.18036 1458.0
782.9739 222.18036 1458.0
794.4429 223.0947 1464.0
802.6897 223.0947 1464.0
810.93646 223.0947 1464.0
812.4686 221.26604 1452.0
820.6479 221.26604 1452.0
832.2521 222.18036 1458.0
843.92377 223.0947 1464.0
852.17053 223.0947 1464.0
860.41736 223.0947 1464.0
868.6641 223.0947 1464.0
880.50494 224.00902 1470.0
-767.3253 192.82047 1314.0
-757.03174 192.08675 1309.0
-752.52155 192.82047 1314.0
-745.11975 192.82047 1314.0
-734.91064 192.08675 1309.0
-724.7581 191.35303 1304.0
-717.41254 191.35303 1304.0
-715.5123 192.82047 1314.0
-708.1105 192.82047 1314.0
-703.3749 193.55418 1319.0
-695.94495 193.55418 1319.0
-685.9049 192.82047 1314.0
-678.50305 192.82047 1314.0
-668.54755 192.08675 1309.0
-666.2248 193.55418 1319.0
-658.79486 193.55418 1319.0
-653.8339 194.28789 1324.0
-646.3758 194.28789 1324.0
-641.33044 195.0216 1329.0
-631.45935 194.28789 1324.0
-624.0013 194.28789 1324.0
-616.543 194.28789 1324.0
-609.0849 194.28789 1324.0
-603.8987 195.0216 1329.0
-596.41235 195.0216 1329.0
-588.926 195.0216 1329.0
-581.43964 195.0216 1329.0
-573.9533 195.0216 1329.0
-568.59814 195.75533 1334.0
-558.9806 195.0216 1329.0
-551.49426 195.0216 1329.0
-546.05457 195.75533 1334.0
-540.5586 196.48904 1339.0
-533.0159 196.48904 1339.0
-525.47327 196.48904 1339.0
-517.9306 196.48904 1339.0
-510.38788 196.48904 1339.0
-504.7229 197.22276 1344.0
-495.30255 196.48904 1339.0
-487.75986 196.48904 1339.0
-480.2172 196.48904 1339.0
-472.67447 196.48904 1339.0
-465.1318 196.48904 1339.0
-457.58914 196.48904 1339.0
-448.36594 195.75533 1334.0
-442.50378 196.48904 1339.0
-436.5853 197.22276 1344.0
-429.01447 197.22276 1344.0
-421.44363 197.22276 1344.0
-413.87277 197.22276 1344.0
-406.30194 197.22276 1344.0
-398.73108 197.22276 1344.0
-391.16025 197.22276 1344.0
-383.58942 197.22276 1344.0
-377.6972 198.10321 1350.0
-370.09256 198.10321 1350.0
-360.87686 197.22276 1344.0
-354.8833 198.10321 1350.0
-347.2787 198.10321 1350.0
-339.674 198.10321 1350.0
-332.06937 198.10321 1350.0
-324.4647 198.10321 1350.0
-316.86008 198.10321 1350.0
-309.25546 198.10321 1350.0
-301.6508 198.10321 1350.0
-294.04617 198.10321 1350.0
-287.50238 198.83693 1355.0
-279.8696 198.83693 1355.0
-272.23682 198.83693 1355.0
-264.60397 198.83693 1355.0
-256.9712 198.83693 1355.0
-248.41829 198.10321 1350.0
-241.70557 198.83693 1355.0
-234.07277 198.83693 1355.0
-226.43993 198.83693 1355.0
-218.80716 198.83693 1355.0
-211.17432 198.83693 1355.0
-203.54153 198.83693 1355.0
-195.90874 198.83693 1355.0
-137.97636 145.71591 993.0
-132.64937 146.00941 995.0
-126.40603 145.2757 990.0
-134.84624 198.83693 1355.0
-127.68288 199.57063 1360.0
-120.02192 199.57063 1360.0
-112.36092 199.57063 1360.0
-104.69997 199.57063 1360.0
-97.46708 200.4511 1366.0
-89.77233 200.4511 1366.0
-81.71706 199.57063 1360.0
-74.05606 199.57063 1360.0
-66.3951 199.57063 1360.0
-58.993225 200.4511 1366.0
-51.486244 201.18481 1371.0
-43.60372 200.4511 1366.0
-35.908924 200.4511 1366.0
-28.317442 201.18481 1371.0
-20.594477 201.18481 1371.0
-12.871561 201.18481 1371.0
-5.129867 200.4511 1366.0
2.5742726 201.18481 1371.0
10.297288 201.18481 1371.0
18.020205 201.18481 1371.0
25.743122 201.18481 1371.0
33.466038 201.18481 1371.0
41.33917 201.91853 1376.0
48.91197 201.18481 1371.0
56.634884 201.18481 1371.0
64.592514 201.91853 1376.0
72.3436 201.91853 1376.0
80.09467 201.91853 1376.0
87.84586 201.91853 1376.0
95.59694 201.91853 1376.0
103.34802 201.91853 1376.0
111.099106 201.91853 1376.0
118.85018 201.91853 1376.0
127.15341 202.799 1382.0
135.52412 203.67944 1388.0
143.3428 203.67944 1388.0
151.70601 204.41316 1393.0
159.55286 204.41316 1393.0
167.3998 204.41316 1393.0
175.24664 204.41316 1393.0
183.09349 204.41316 1393.0
190.94034 204.41316 1393.0
198.78717 204.41316 1393.0
206.63412 204.41316 1393.0
214.48096 204.41316 1393.0
222.3278 204.41316 1393.0
231.16608 205.29362 1399.0
239.0467 205.29362 1399.0
246.92746 205.29362 1399.0
254.80809 205.29362 1399.0
261.56213 204.41316 1393.0
269.40897 204.41316 1393.0
277.25583 204.41316 1393.0
286.33078 205.29362 1399.0
294.2114 205.29362 1399.0
302.09204 205.29362 1399.0
311.08054 206.02734 1404.0
320.35254 206.90779 1410.0
328.29526 206.90779 1410.0
336.23788 206.90779 1410.0
344.18045 206.90779 1410.0
352.12305 206.90779 1410.0
360.06567 206.90779 1410.0
368.00836 206.90779 1410.0
375.951 206.90779 1410.0
383.8936 206.90779 1410.0
391.83618 206.90779 1410.0
401.47998 207.78825 1416.0
411.1915 208.66872 1422.0
419.20166 208.66872 1422.0
429.01447 209.54918 1428.0
437.05847 209.54918 1428.0
446.97266 210.42964 1434.0
455.05054 210.42964 1434.0
463.12833 210.42964 1434.0
471.20615 210.42964 1434.0
479.28394 210.42964 1434.0
487.36176 210.42964 1434.0
495.43964 210.42964 1434.0
505.62424 211.31009 1440.0
513.73584 211.31009 1440.0
521.8474 211.31009 1440.0
532.1672 212.19055 1446.0
535.82874 210.42964 1434.0
543.90656 210.42964 1434.0
554.2939 211.31009 1440.0
562.40546 211.31009 1440.0
570.5171 211.31009 1440.0
578.6288 211.31009 1440.0
586.7404 211.31009 1440.0
594.852 211.31009 1440.0
600.45123 210.42964 1434.0
611.0752 211.31009 1440.0
619.1869 211.31009 1440.0
627.29846 211.31009 1440.0
640.70514 213.07101 1452.0
648.88434 213.07101 1452.0
657.0636 213.07101 1452.0
665.2428 213.07101 1452.0
670.6393 212.19055 1446.0
678.7847 212.19055 1446.0
689.7804 213.07101 1452.0
697.95966 213.07101 1452.0
706.1389 213.07101 1452.0
714.3181 213.07101 1452.0
722.4973 213.07101 1452.0
730.6765 213.07101 1452.0
738.8557 213.07101 1452.0
750.12195 213.95146 1458.0
758.3349 213.95146 1458.0
766.5479 213.95146 1458.0
774.76086 213.95146 1458.0
782.9739 213.95146 1458.0
791.187 213.95146 1458.0
799.39996 213.95146 1458.0
807.613 213.95146 1458.0
812.4686 213.07101 1452.0
820.6479 213.07101 1452.0
832.2521 213.95146 1458.0
840.465 213.95146 1458.0
848.67804 213.95146 1458.0
860.41736 214.83194 1464.0
868.6641 214.83194 1464.0
880.50494 215.71239 1470.0
-767.3253 185.4043 1314.0
-757.03174 184.6988 1309.0
-749.6581 184.6988 1309.0
-742.2844 184.6988 1309.0
-734.91064 184.6988 1309.0
-727.53705 184.6988 1309.0
-720.1633 184.6988 1309.0
-715.5123 185.4043 1314.0
-708.1105 185.4043 1314.0
-700.70856 185.4043 1314.0
-693.3068 185.4043 1314.0
-688.5149 186.10979 1319.0
-681.0849 186.10979 1319.0
-673.65485 186.10979 1319.0
-668.7503 186.81529 1324.0
-658.79486 186.10979 1319.0
-653.8339 186.81529 1324.0
-648.8168 187.52078 1329.0
-643.7433 188.22627 1334.0
-633.84406 187.52078 1329.0
-624.0013 186.81529 1324.0
-614.2147 186.10979 1319.0
-609.0849 186.81529 1324.0
-601.6267 186.81529 1324.0
-596.41235 187.52078 1329.0
-588.926 187.52078 1329.0
-583.62714 188.22627 1334.0
-573.9533 187.52078 1329.0
-566.467 187.52078 1329.0
-558.9806 187.52078 1329.0
-551.49426 187.52078 1329.0
-544.0079 187.52078 1329.0
-538.5401 188.22627 1334.0
-531.0256 188.22627 1334.0
-523.51105 188.22627 1334.0
-515.9966 188.22627 1334.0
-510.38788 188.93178 1339.0
-502.8452 188.93178 1339.0
-495.30255 188.93178 1339.0
-487.75986 188.93178 1339.0
-480.2172 188.93178 1339.0
-470.90945 188.22627 1334.0
-465.1318 188.93178 1339.0
-457.58914 188.93178 1339.0
-450.04645 188.93178 1339.0
-442.50378 188.93178 1339.0
-434.9611 188.93178 1339.0
-429.01447 189.63727 1344.0
-421.44363 189.63727 1344.0
-413.87277 189.63727 1344.0
-406.30194 189.63727 1344.0
-398.73108 189.63727 1344.0
-391.16025 189.63727 1344.0
-383.58942 189.63727 1344.0
-377.6972 190.48387 1350.0
-370.09256 190.48387 1350.0
-360.87686 189.63727 1344.0
-354.8833 190.48387 1350.0
-348.5649 191.18936 1355.0
-339.674 190.48387 1350.0
-332.06937 190.48387 1350.0
-324.4647 190.48387 1350.0
-316.86008 190.48387 1350.0
-309.25546 190.48387 1350.0
-301.6508 190.48387 1350.0
-294.04617 190.48387 1350.0
-287.50238 191.18936 1355.0
-279.8696 191.18936 1355.0
-272.23682 191.18936 1355.0
-263.62756 190.48387 1350.0
-256.9712 191.18936 1355.0
-248.41829 190.48387 1350.0
-241.70557 191.18936 1355.0
-234.07277 191.18936 1355.0
-226.43993 191.18936 1355.0
-218.80716 191.18936 1355.0
-211.17432 191.18936 1355.0
-204.2926 191.89485 1360.0
-195.90874 191.18936 1355.0
-137.97636 140.11147 993.0
-132.38274 140.11147 993.0
-126.789085 140.11147 993.0
-142.47908 191.18936 1355.0
-134.84624 191.18936 1355.0
-127.68288 191.89485 1360.0
-120.02192 191.89485 1360.0
-112.36092 191.89485 1360.0
-104.69997 191.89485 1360.0
-97.46708 192.74146 1366.0
-89.77233 192.74146 1366.0
-81.71706 191.89485 1360.0
-74.05606 191.89485 1360.0
-66.3951 191.89485 1360.0
-58.993225 192.74146 1366.0
-51.298473 192.74146 1366.0
-43.60372 192.74146 1366.0
-36.04036 193.44695 1371.0
-28.317442 193.44695 1371.0
-20.594477 193.44695 1371.0
-12.824618 192.74146 1366.0
-5.129867 192.74146 1366.0
2.5742726 193.44695 1371.0
10.259734 192.74146 1366.0
17.954485 192.74146 1366.0
25.743122 193.44695 1371.0
33.466038 193.44695 1371.0
41.188953 193.44695 1371.0
48.91197 193.44695 1371.0
56.634884 193.44695 1371.0
64.592514 194.15245 1376.0
72.3436 194.15245 1376.0
80.09467 194.15245 1376.0
87.84586 194.15245 1376.0
95.59694 194.15245 1376.0
103.34802 194.15245 1376.0
111.099106 194.15245 1376.0
118.85018 194.15245 1376.0
127.15341 194.99904 1382.0
135.52412 195.84564 1388.0
143.3428 195.84564 1388.0
151.16148 195.84564 1388.0
158.98016 195.84564 1388.0
166.79893 195.84564 1388.0
174.61761 195.84564 1388.0
183.09349 196.55113 1393.0
190.94034 196.55113 1393.0
198.78717 196.55113 1393.0
206.63412 196.55113 1393.0
214.48096 196.55113 1393.0
222.3278 196.55113 1393.0
231.16608 197.39772 1399.0
239.0467 197.39772 1399.0
246.92746 197.39772 1399.0
254.80809 197.39772 1399.0
261.56213 196.55113 1393.0
269.40897 196.55113 1393.0
277.25583 196.55113 1393.0
285.10275 196.55113 1393.0
294.2114 197.39772 1399.0
302.09204 197.39772 1399.0
311.08054 198.10323 1404.0
320.35254 198.94981 1410.0
328.29526 198.94981 1410.0
336.23788 198.94981 1410.0
344.18045 198.94981 1410.0
352.12305 198.94981 1410.0
360.06567 198.94981 1410.0
368.00836 198.94981 1410.0
375.951 198.94981 1410.0
385.5272 199.79642 1416.0
393.50357 199.79642 1416.0
401.47998 199.79642 1416.0
411.1915 200.643 1422.0
419.20166 200.643 1422.0
427.21188 200.643 1422.0
435.2221 200.643 1422.0
446.97266 202.3362 1434.0
455.05054 202.3362 1434.0
463.12833 202.3362 1434.0
471.20615 202.3362 1434.0
479.28394 202.3362 1434.0
487.36176 202.3362 1434.0
495.43964 202.3362 1434.0
505.62424 203.18279 1440.0
513.73584 203.18279 1440.0
521.8474 203.18279 1440.0
529.959 203.18279 1440.0
535.82874 202.3362 1434.0
546.1823 203.18279 1440.0
554.2939 203.18279 1440.0
562.40546 203.18279 1440.0
570.5171 203.18279 1440.0
578.6288 203.18279 1440.0
586.7404 203.18279 1440.0
594.852 203.18279 1440.0
602.96356 203.18279 1440.0
611.0752 203.18279 1440.0
621.76685 204.02939 1446.0
629.9122 204.02939 1446.0
638.0576 204.02939 1446.0
646.20306 204.02939 1446.0
654.3484 204.02939 1446.0
662.4939 204.02939 1446.0
670.6393 204.02939 1446.0
678.7847 204.02939 1446.0
686.9301 204.02939 1446.0
697.95966 204.87598 1452.0
706.1389 204.87598 1452.0
714.3181 204.87598 1452.0
722.4973 204.87598 1452.0
730.6765 204.87598 1452.0
741.9088 205.72258 1458.0
750.12195 205.72258 1458.0
758.3349 205.72258 1458.0
766.5479 205.72258 1458.0
774.76086 205.72258 1458.0
782.9739 205.72258 1458.0
791.187 205.72258 1458.0
799.39996 205.72258 1458.0
807.613 205.72258 1458.0
812.4686 204.87598 1452.0
820.6479 204.87598 1452.0
832.2521 205.72258 1458.0
840.465 205.72258 1458.0
852.17053 206.56917 1464.0
863.94366 207.41577 1470.0
872.2242 207.41577 1470.0
880.50494 207.41577 1470.0
-761.4857 176.63358 1304.0
-757.03174 177.31085 1309.0
-749.6581 177.31085 1309.0
-742.2844 177.31085 1309.0
-737.71783 177.98813 1314.0
-730.31604 177.98813 1314.0
-720.1633 177.31085 1309.0
-715.5123 177.98813 1314.0
-708.1105 177.98813 1314.0
-698.04224 177.31085 1309.0
-690.66864 177.31085 1309.0
-683.2949 177.31085 1309.0
-678.50305 177.98813 1314.0
-671.1012 177.98813 1314.0
-666.2248 178.6654 1319.0
-658.79486 178.6654 1319.0
-653.8339 179.34268 1324.0
-648.8168 180.01996 1329.0
-641.33044 180.01996 1329.0
-633.84406 180.01996 1329.0
-624.0013 179.34268 1324.0
-614.2147 178.6654 1319.0
-609.0849 179.34268 1324.0
-601.6267 179.34268 1324.0
-596.41235 180.01996 1329.0
-588.926 180.01996 1329.0
-581.43964 180.01996 1329.0
-573.9533 180.01996 1329.0
-566.467 180.01996 1329.0
-561.0836 180.69724 1334.0
-551.49426 180.01996 1329.0
-544.0079 180.01996 1329.0
-536.52155 180.01996 1329.0
-531.0256 180.69724 1334.0
-525.47327 181.37451 1339.0
-515.9966 180.69724 1334.0
-510.38788 181.37451 1339.0
-502.8452 181.37451 1339.0
-495.30255 181.37451 1339.0
-487.75986 181.37451 1339.0
-478.42398 180.69724 1334.0
-470.90945 180.69724 1334.0
-465.1318 181.37451 1339.0
-459.29785 182.05179 1344.0
-450.04645 181.37451 1339.0
-442.50378 181.37451 1339.0
-434.9611 181.37451 1339.0
-429.01447 182.05179 1344.0
-421.44363 182.05179 1344.0
-412.33307 181.37451 1339.0
-404.7904 181.37451 1339.0
-398.73108 182.05179 1344.0
-391.16025 182.05179 1344.0
-383.58942 182.05179 1344.0
-377.6972 182.86453 1350.0
-368.44772 182.05179 1344.0
-362.48788 182.86453 1350.0
-354.8833 182.86453 1350.0
-348.5649 183.54181 1355.0
-340.93207 183.54181 1355.0
-332.06937 182.86453 1350.0
-324.4647 182.86453 1350.0
-316.86008 182.86453 1350.0
-309.25546 182.86453 1350.0
-302.768 183.54181 1355.0
-295.13522 183.54181 1355.0
-287.50238 183.54181 1355.0
-279.8696 183.54181 1355.0
-272.23682 183.54181 1355.0
-263.62756 182.86453 1350.0
-256.9712 183.54181 1355.0
-248.41829 182.86453 1350.0
-241.70557 183.54181 1355.0
-234.07277 183.54181 1355.0
-226.43993 183.54181 1355.0
-218.80716 183.54181 1355.0
-211.17432 183.54181 1355.0
-204.2926 184.21907 1360.0
-195.90874 183.54181 1355.0
-137.97636 134.50702 993.0
-132.38274 134.50702 993.0
-127.04444 134.77792 995.0
-121.19546 134.50702 993.0
-134.84624 183.54181 1355.0
-127.68288 184.21907 1360.0
-120.02192 184.21907 1360.0
-112.36092 184.21907 1360.0
-104.69997 184.21907 1360.0
-97.03897 184.21907 1360.0
-89.37801 184.21907 1360.0
-81.71706 184.21907 1360.0
-74.382774 185.0318 1366.0
-66.68803 185.0318 1366.0
-58.734104 184.21907 1360.0
-51.298473 185.0318 1366.0
-43.60372 185.0318 1366.0
-35.908924 185.0318 1366.0
-28.214169 185.0318 1366.0
-20.594477 185.70908 1371.0
-12.824618 185.0318 1366.0
-5.129867 185.0318 1366.0
2.5648844 185.0318 1366.0
10.259734 185.0318 1366.0
17.954485 185.0318 1366.0
25.743122 185.70908 1371.0
33.466038 185.70908 1371.0
41.188953 185.70908 1371.0
48.91197 185.70908 1371.0
56.634884 185.70908 1371.0
64.592514 186.38635 1376.0
72.3436 186.38635 1376.0
80.09467 186.38635 1376.0
87.84586 186.38635 1376.0
95.59694 186.38635 1376.0
103.34802 186.38635 1376.0
111.099106 186.38635 1376.0
118.85018 186.38635 1376.0
127.15341 187.19908 1382.0
135.52412 188.01183 1388.0
143.3428 188.01183 1388.0
151.16148 188.01183 1388.0
158.98016 188.01183 1388.0
166.79893 188.01183 1388.0
174.61761 188.01183 1388.0
183.09349 188.6891 1393.0
190.94034 188.6891 1393.0
198.78717 188.6891 1393.0
206.63412 188.6891 1393.0
214.48096 188.6891 1393.0
222.3278 188.6891 1393.0
230.17467 188.6891 1393.0
239.0467 189.50182 1399.0
246.92746 189.50182 1399.0
254.80809 189.50182 1399.0
261.56213 188.6891 1393.0
269.40897 188.6891 1393.0
277.25583 188.6891 1393.0
285.10275 188.6891 1393.0
294.2114 189.50182 1399.0
302.09204 189.50182 1399.0
311.08054 190.1791 1404.0
318.98935 190.1791 1404.0
326.89822 190.1791 1404.0
334.80704 190.1791 1404.0
344.18045 190.99184 1410.0
353.62146 191.80457 1416.0
361.59787 191.80457 1416.0
368.00836 190.99184 1410.0
375.951 190.99184 1410.0
383.8936 190.99184 1410.0
393.50357 191.80457 1416.0
401.47998 191.80457 1416.0
409.45648 191.80457 1416.0
419.20166 192.6173 1422.0
427.21188 192.6173 1422.0
433.3857 191.80457 1416.0
443.23227 192.6173 1422.0
453.14658 193.43002 1428.0
461.19058 193.43002 1428.0
471.20615 194.24275 1434.0
479.28394 194.24275 1434.0
487.36176 194.24275 1434.0
495.43964 194.24275 1434.0
505.62424 195.0555 1440.0
513.73584 195.0555 1440.0
519.67303 194.24275 1434.0
529.959 195.0555 1440.0
535.82874 194.24275 1434.0
546.1823 195.0555 1440.0
554.2939 195.0555 1440.0
562.40546 195.0555 1440.0
570.5171 195.0555 1440.0
578.6288 195.0555 1440.0
586.7404 195.0555 1440.0
597.33057 195.86823 1446.0
605.47595 195.86823 1446.0
613.62134 195.86823 1446.0
621.76685 195.86823 1446.0
632.526 196.68094 1452.0
640.70514 196.68094 1452.0
646.20306 195.86823 1446.0
651.63324 195.0555 1440.0
659.745 195.0555 1440.0
667.85657 195.0555 1440.0
681.60126 196.68094 1452.0
689.7804 196.68094 1452.0
697.95966 196.68094 1452.0
703.221 195.86823 1446.0
711.36633 195.86823 1446.0
719.5118 195.86823 1446.0
730.6765 196.68094 1452.0
741.9088 197.49368 1458.0
750.12195 197.49368 1458.0
758.3349 197.49368 1458.0
766.5479 197.49368 1458.0
774.76086 197.49368 1458.0
782.9739 197.49368 1458.0
791.187 197.49368 1458.0
799.39996 197.49368 1458.0
807.613 197.49368 1458.0
812.4686 196.68094 1452.0
820.6479 196.68094 1452.0
832.2521 197.49368 1458.0
840.465 197.49368 1458.0
848.67804 197.49368 1458.0
860.41736 198.30641 1464.0
868.6641 198.30641 1464.0
880.50494 199.11916 1470.0
-764.4055 169.92291 1309.0
-757.03174 169.92291 1309.0
-746.7946 169.27385 1304.0
-742.2844 169.92291 1309.0
-734.91064 169.92291 1309.0
-727.53705 169.92291 1309.0
-720.1633 169.92291 1309.0
-712.7897 169.92291 1309.0
-705.416 169.92291 1309.0
-698.04224 169.92291 1309.0
-690.66864 169.92291 1309.0
-685.9049 170.57196 1314.0
-678.50305 170.57196 1314.0
-671.1012 170.57196 1314.0
-666.2248 171.22102 1319.0
-661.2922 171.87007 1324.0
-653.8339 171.87007 1324.0
-646.3758 171.87007 1324.0
-636.50476 171.22102 1319.0
-626.69006 170.57196 1314.0
-621.6448 171.22102 1319.0
-616.543 171.87007 1324.0
-609.0849 171.87007 1324.0
-601.6267 171.87007 1324.0
-596.41235 172.51913 1329.0
-588.926 172.51913 1329.0
-581.43964 172.51913 1329.0
-573.9533 172.51913 1329.0
-566.467 172.51913 1329.0
-561.0836 173.16818 1334.0
-553.5691 173.16818 1334.0
-544.0079 172.51913 1329.0
-538.5401 173.16818 1334.0
-531.0256 173.16818 1334.0
-523.51105 173.16818 1334.0
-517.9306 173.81725 1339.0
-512.2937 174.46631 1344.0
-504.7229 174.46631 1344.0
-495.30255 173.81725 1339.0
-487.75986 173.81725 1339.0
-478.42398 173.16818 1334.0
-470.90945 173.16818 1334.0
-465.1318 173.81725 1339.0
-459.29785 174.46631 1344.0
-451.727 174.46631 1344.0
-442.50378 173.81725 1339.0
-434.9611 173.81725 1339.0
-429.01447 174.46631 1344.0
-421.44363 174.46631 1344.0
-412.33307 173.81725 1339.0
-404.7904 173.81725 1339.0
-397.2477 173.81725 1339.0
-389.70505 173.81725 1339.0
-383.58942 174.46631 1344.0
-377.6972 175.24518 1350.0
-368.44772 174.46631 1344.0
-360.87686 174.46631 1344.0
-353.30603 174.46631 1344.0
-347.2787 175.24518 1350.0
-339.674 175.24518 1350.0
-332.06937 175.24518 1350.0
-324.4647 175.24518 1350.0
-316.86008 175.24518 1350.0
-310.40088 175.89423 1355.0
-303.88522 176.54329 1360.0
-295.13522 175.89423 1355.0
-287.50238 175.89423 1355.0
-279.8696 175.89423 1355.0
-272.23682 175.89423 1355.0
-264.60397 175.89423 1355.0
-256.02295 175.24518 1350.0
-247.31421 174.46631 1344.0
-240.81366 175.24518 1350.0
-234.07277 175.89423 1355.0
-226.43993 175.89423 1355.0
-218.80716 175.89423 1355.0
-211.17432 175.89423 1355.0
-204.2926 176.54329 1360.0
-196.63165 176.54329 1360.0
-137.97636 128.90256 993.0
-132.38274 128.90256 993.0
-126.789085 128.90256 993.0
-134.84624 175.89423 1355.0
-127.68288 176.54329 1360.0
-120.02192 176.54329 1360.0
-112.36092 176.54329 1360.0
-104.69997 176.54329 1360.0
-97.03897 176.54329 1360.0
-89.37801 176.54329 1360.0
-81.71706 176.54329 1360.0
-74.05606 176.54329 1360.0
-66.3951 176.54329 1360.0
-58.734104 176.54329 1360.0
-51.07315 176.54329 1360.0
-43.412197 176.54329 1360.0
-35.908924 177.32216 1366.0
-28.214169 177.32216 1366.0
-20.51937 177.32216 1366.0
-12.871561 177.9712 1371.0
-5.148644 177.9712 1371.0
2.5536187 176.54329 1360.0
10.214669 176.54329 1360.0
17.954485 177.32216 1366.0
25.743122 177.9712 1371.0
33.466038 177.9712 1371.0
41.188953 177.9712 1371.0
48.91197 177.9712 1371.0
56.634884 177.9712 1371.0
64.3578 177.9712 1371.0
72.3436 178.62027 1376.0
80.09467 178.62027 1376.0
87.84586 178.62027 1376.0
95.59694 178.62027 1376.0
103.34802 178.62027 1376.0
111.099106 178.62027 1376.0
118.85018 178.62027 1376.0
127.15341 179.39914 1382.0
135.52412 180.178 1388.0
143.3428 180.178 1388.0
150.50806 179.39914 1382.0
158.98016 180.178 1388.0
166.79893 180.178 1388.0
174.61761 180.178 1388.0
182.4363 180.178 1388.0
190.94034 180.82704 1393.0
198.78717 180.82704 1393.0
206.63412 180.82704 1393.0
215.40479 181.60591 1399.0
222.3278 180.82704 1393.0
230.17467 180.82704 1393.0
239.0467 181.60591 1399.0
246.92746 181.60591 1399.0
254.80809 181.60591 1399.0
261.56213 180.82704 1393.0
269.40897 180.82704 1393.0
278.45 181.60591 1399.0
286.33078 181.60591 1399.0
294.2114 181.60591 1399.0
300.79645 180.82704 1393.0
308.64328 180.82704 1393.0
317.85336 181.60591 1399.0
325.73407 181.60591 1399.0
334.80704 182.25497 1404.0
344.18045 183.03384 1410.0
353.62146 183.81271 1416.0
360.06567 183.03384 1410.0
368.00836 183.03384 1410.0
375.951 183.03384 1410.0
383.8936 183.03384 1410.0
393.50357 183.81271 1416.0
401.47998 183.81271 1416.0
409.45648 183.81271 1416.0
417.4329 183.81271 1416.0
425.4093 183.81271 1416.0
433.3857 183.81271 1416.0
443.23227 184.59158 1422.0
451.2426 184.59158 1422.0
461.19058 185.37045 1428.0
469.23456 185.37045 1428.0
479.28394 186.1493 1434.0
487.36176 186.1493 1434.0
495.43964 186.1493 1434.0
503.51743 186.1493 1434.0
511.59525 186.1493 1434.0
519.67303 186.1493 1434.0
529.959 186.92818 1440.0
535.82874 186.1493 1434.0
546.1823 186.92818 1440.0
554.2939 186.92818 1440.0
560.06213 186.1493 1434.0
570.5171 186.92818 1440.0
578.6288 186.92818 1440.0
586.7404 186.92818 1440.0
594.852 186.92818 1440.0
605.47595 187.70705 1446.0
616.1675 188.48592 1452.0
621.76685 187.70705 1446.0
627.29846 186.92818 1440.0
635.4101 186.92818 1440.0
643.5217 186.92818 1440.0
651.63324 186.92818 1440.0
662.4939 187.70705 1446.0
670.6393 187.70705 1446.0
681.60126 188.48592 1452.0
689.7804 188.48592 1452.0
697.95966 188.48592 1452.0
703.221 187.70705 1446.0
711.36633 187.70705 1446.0
719.5118 187.70705 1446.0
730.6765 188.48592 1452.0
741.9088 189.26479 1458.0
750.12195 189.26479 1458.0
758.3349 189.26479 1458.0
766.5479 189.26479 1458.0
774.76086 189.26479 1458.0
782.9739 189.26479 1458.0
791.187 189.26479 1458.0
799.39996 189.26479 1458.0
807.613 189.26479 1458.0
812.4686 188.48592 1452.0
820.6479 188.48592 1452.0
832.2521 189.26479 1458.0
840.465 189.26479 1458.0
848.67804 189.26479 1458.0
856.891 189.26479 1458.0
865.104 189.26479 1458.0
876.911 190.04366 1464.0
-764.4055 162.53493 1309.0
-754.14014 161.9141 1304.0
-749.6581 162.53493 1309.0
-742.2844 162.53493 1309.0
-737.71783 163.15578 1314.0
-730.31604 163.15578 1314.0
-722.9141 163.15578 1314.0
-715.5123 163.15578 1314.0
-705.416 162.53493 1309.0
-698.04224 162.53493 1309.0
-690.66864 162.53493 1309.0
-685.9049 163.15578 1314.0
-675.9212 162.53493 1309.0
-671.1012 163.15578 1314.0
-666.2248 163.77661 1319.0
-661.2922 164.39745 1324.0
-653.8339 164.39745 1324.0
-646.3758 164.39745 1324.0
-636.50476 163.77661 1319.0
-629.0747 163.77661 1319.0
-621.6448 163.77661 1319.0
-616.543 164.39745 1324.0
-609.0849 164.39745 1324.0
-603.8987 165.01828 1329.0
-596.41235 165.01828 1329.0
-588.926 165.01828 1329.0
-581.43964 165.01828 1329.0
-573.9533 165.01828 1329.0
-566.467 165.01828 1329.0
-558.9806 165.01828 1329.0
-551.49426 165.01828 1329.0
-546.05457 165.63911 1334.0
-538.5401 165.63911 1334.0
-533.0159 166.25995 1339.0
-525.47327 166.25995 1339.0
-517.9306 166.25995 1339.0
-510.38788 166.25995 1339.0
-500.96753 165.63911 1334.0
-495.30255 166.25995 1339.0
-487.75986 166.25995 1339.0
-480.2172 166.25995 1339.0
-472.67447 166.25995 1339.0
-466.86868 166.88078 1344.0
-459.29785 166.88078 1344.0
-450.04645 166.25995 1339.0
-442.50378 166.25995 1339.0
-434.9611 166.25995 1339.0
-427.41843 166.25995 1339.0
-419.87576 166.25995 1339.0
-413.87277 166.88078 1344.0
-406.30194 166.88078 1344.0
-398.73108 166.88078 1344.0
-391.16025 166.88078 1344.0
-383.58942 166.88078 1344.0
-377.6972 167.6258 1350.0
-368.44772 166.88078 1344.0
-360.87686 166.88078 1344.0
-353.30603 166.88078 1344.0
-347.2787 167.6258 1350.0
-339.674 167.6258 1350.0
-332.06937 167.6258 1350.0
-324.4647 167.6258 1350.0
-316.86008 167.6258 1350.0
-309.25546 167.6258 1350.0
-302.768 168.24663 1355.0
-295.13522 168.24663 1355.0
-287.50238 168.24663 1355.0
-279.8696 168.24663 1355.0
-272.23682 168.24663 1355.0
-264.60397 168.24663 1355.0
-256.9712 168.24663 1355.0
-247.31421 166.88078 1344.0
-240.81366 167.6258 1350.0
-233.20903 167.6258 1350.0
-226.43993 168.24663 1355.0
-218.80716 168.24663 1355.0
-211.17432 168.24663 1355.0
-202.79045 167.6258 1350.0
-143.13628 122.925575 990.0
-137.97636 123.29808 993.0
-132.38274 123.29808 993.0
-127.04444 123.54641 995.0
-134.84624 168.24663 1355.0
-127.68288 168.86746 1360.0
-120.02192 168.86746 1360.0
-112.36092 168.86746 1360.0
-104.69997 168.86746 1360.0
-97.03897 168.86746 1360.0
-89.37801 168.86746 1360.0
-82.077576 169.61246 1366.0
-74.382774 169.61246 1366.0
-66.3951 168.86746 1360.0
-58.734104 168.86746 1360.0
-51.07315 168.86746 1360.0
-43.412197 168.86746 1360.0
-36.04036 170.23329 1371.0
-28.317442 170.23329 1371.0
-20.594477 170.23329 1371.0
-12.871561 170.23329 1371.0
-5.148644 170.23329 1371.0
2.5536187 168.86746 1360.0
10.214669 168.86746 1360.0
17.954485 169.61246 1366.0
25.743122 170.23329 1371.0
33.466038 170.23329 1371.0
41.188953 170.23329 1371.0
48.91197 170.23329 1371.0
56.634884 170.23329 1371.0
64.3578 170.23329 1371.0
72.08072 170.23329 1371.0
80.09467 170.85414 1376.0
87.84586 170.85414 1376.0
95.59694 170.85414 1376.0
103.34802 170.85414 1376.0
111.099106 170.85414 1376.0
118.85018 170.85414 1376.0
127.15341 171.59914 1382.0
134.93828 171.59914 1382.0
142.72318 171.59914 1382.0
150.50806 171.59914 1382.0
158.29294 171.59914 1382.0
166.79893 172.34415 1388.0
174.61761 172.34415 1388.0
182.4363 172.34415 1388.0
190.94034 172.96498 1393.0
198.78717 172.96498 1393.0
206.63412 172.96498 1393.0
