ply
format ascii 1.0
element vertex 1725
property float x
property float y
property float z
end_header
-226.43993 137.65636 1355.0
-217.99976 137.14839 1350.0
-210.39508 137.14839 1350.0
-203.54153 137.65636 1355.0
-195.90874 137.65636 1355.0
-188.2759 137.65636 1355.0
-180.64313 137.65636 1355.0
-173.01028 137.65636 1355.0
-165.37749 137.65636 1355.0
-158.32678 138.1643 1360.0
-110.229744 101.08345 995.0
-104.94031 101.38822 998.0
-99.61704 101.69299 1001.0
-104.31504 137.65636 1355.0
-96.682205 137.65636 1355.0
-89.37801 138.1643 1360.0
-81.71706 138.1643 1360.0
-74.05606 138.1643 1360.0
-66.3951 138.1643 1360.0
-58.993225 138.77386 1366.0
-51.298473 138.77386 1366.0
-43.412197 138.1643 1360.0
-35.908924 138.77386 1366.0
-28.317442 139.28181 1371.0
-20.51937 138.77386 1366.0
-12.824618 138.77386 1366.0
-5.129867 138.77386 1366.0
2.5536187 138.1643 1360.0
10.259734 138.77386 1366.0
17.954485 138.77386 1366.0
25.649237 138.77386 1366.0
33.343987 138.77386 1366.0
41.03874 138.77386 1366.0
48.73359 138.77386 1366.0
56.428337 138.77386 1366.0
64.3578 139.28181 1371.0
72.08072 139.28181 1371.0
80.09467 139.78978 1376.0
87.52665 139.28181 1371.0
95.24957 139.28181 1371.0
103.34802 139.78978 1376.0
111.099106 139.78978 1376.0
118.85018 139.78978 1376.0
126.14133 139.28181 1371.0
134.35245 139.78978 1376.0
142.10353 139.78978 1376.0
149.85461 139.78978 1376.0
157.6057 139.78978 1376.0
165.35687 139.78978 1376.0
173.8628 140.39932 1382.0
181.64767 140.39932 1382.0
190.94034 141.51682 1393.0
198.07365 141.00887 1388.0
206.63412 141.51682 1393.0
214.48096 141.51682 1393.0
222.3278 141.51682 1393.0
230.17467 141.51682 1393.0
238.0215 141.51682 1393.0
245.86844 141.51682 1393.0
253.71527 141.51682 1393.0
262.68875 142.12637 1399.0
270.5694 142.12637 1399.0
278.45 142.12637 1399.0
287.35413 142.63432 1404.0
294.2114 142.12637 1399.0
303.17172 142.63432 1404.0
312.4099 143.24388 1410.0
320.35254 143.24388 1410.0
329.69226 143.85344 1416.0
337.66864 143.85344 1416.0
345.64505 143.85344 1416.0
353.62146 143.85344 1416.0
361.59787 143.85344 1416.0
369.57437 143.85344 1416.0
379.15054 144.46298 1422.0
387.16077 144.46298 1422.0
395.171 144.46298 1422.0
403.18115 144.46298 1422.0
411.1915 144.46298 1422.0
419.20166 144.46298 1422.0
429.01447 145.07254 1428.0
438.89487 145.68207 1434.0
448.84283 146.29163 1440.0
455.05054 145.68207 1434.0
465.06613 146.29163 1440.0
473.17773 146.29163 1440.0
479.28394 145.68207 1434.0
487.36176 145.68207 1434.0
497.5126 146.29163 1440.0
505.62424 146.29163 1440.0
515.8764 146.90117 1446.0
524.0218 146.90117 1446.0
532.1672 146.90117 1446.0
540.3127 146.90117 1446.0
548.45807 146.90117 1446.0
556.60345 146.90117 1446.0
564.74884 146.90117 1446.0
575.2714 147.51073 1452.0
583.4507 147.51073 1452.0
589.1851 146.90117 1446.0
597.33057 146.90117 1446.0
607.9883 147.51073 1452.0
616.1675 147.51073 1452.0
626.92676 148.12027 1458.0
632.526 147.51073 1452.0
640.70514 147.51073 1452.0
651.5657 148.12027 1458.0
659.7787 148.12027 1458.0
670.7407 148.72981 1464.0
678.9875 148.72981 1464.0
687.2343 148.72981 1464.0
695.4811 148.72981 1464.0
703.7279 148.72981 1464.0
711.9748 148.72981 1464.0
720.22156 148.72981 1464.0
728.4684 148.72981 1464.0
736.71515 148.72981 1464.0
744.962 148.72981 1464.0
753.2088 148.72981 1464.0
764.57635 149.33937 1470.0
769.7024 148.72981 1464.0
781.1376 149.33937 1470.0
789.4181 149.33937 1470.0
797.69885 149.33937 1470.0
802.6897 148.72981 1464.0
814.26 149.33937 1470.0
819.1833 148.72981 1464.0
827.43005 148.72981 1464.0
839.10187 149.33937 1470.0
847.38245 149.33937 1470.0
852.17053 148.72981 1464.0
868.0576 150.0505 1477.0
876.3777 150.0505 1477.0
888.2917 150.66006 1483.0
-758.5659 124.6357 1299.0
-751.2485 124.6357 1299.0
-743.93115 124.6357 1299.0
-736.6138 124.6357 1299.0
-729.2964 124.6357 1299.0
-724.7581 125.11544 1304.0
-717.41254 125.11544 1304.0
-707.34436 124.6357 1299.0
-697.3325 124.15596 1294.0
-692.7096 124.6357 1299.0
-685.39233 124.6357 1299.0
-678.07495 124.6357 1299.0
-670.75757 124.6357 1299.0
-663.44025 124.6357 1299.0
-658.6483 125.11544 1304.0
-656.29755 126.07491 1314.0
-648.8956 126.07491 1314.0
-641.4938 126.07491 1314.0
-634.092 126.07491 1314.0
-626.69006 126.07491 1314.0
-619.28827 126.07491 1314.0
-611.88635 126.07491 1314.0
-604.48456 126.07491 1314.0
-597.0827 126.07491 1314.0
-591.9247 126.55465 1319.0
-582.279 126.07491 1314.0
-577.06464 126.55465 1319.0
-567.4753 126.07491 1314.0
-562.2046 126.55465 1319.0
-556.87756 127.034386 1324.0
-547.3446 126.55465 1319.0
-541.96124 127.034386 1324.0
-534.50305 127.034386 1324.0
-527.04486 127.034386 1324.0
-519.5867 127.034386 1324.0
-514.06256 127.51412 1329.0
-504.67032 127.034386 1324.0
-499.08984 127.51412 1329.0
-493.45303 127.99386 1334.0
-485.93848 127.99386 1334.0
-478.42398 127.99386 1334.0
-470.90945 127.99386 1334.0
-463.39496 127.99386 1334.0
-455.88046 127.99386 1334.0
-448.36594 127.99386 1334.0
-440.85144 127.99386 1334.0
-433.33688 127.99386 1334.0
-425.8224 127.99386 1334.0
-418.3079 127.99386 1334.0
-410.79337 127.99386 1334.0
-403.27887 127.99386 1334.0
-397.2477 128.4736 1339.0
-389.70505 128.4736 1339.0
-382.16238 128.4736 1339.0
-374.6197 128.4736 1339.0
-367.07703 128.4736 1339.0
-359.5343 128.4736 1339.0
-351.99164 128.4736 1339.0
-344.44897 128.4736 1339.0
-336.90628 128.4736 1339.0
-329.36362 128.4736 1339.0
-323.02264 128.95334 1344.0
-315.4518 128.95334 1344.0
-307.88098 128.95334 1344.0
-300.31012 128.95334 1344.0
-292.7393 128.95334 1344.0
-286.4415 129.52902 1350.0
-278.83688 129.52902 1350.0
-271.23224 129.52902 1350.0
-263.62756 129.52902 1350.0
-254.88507 128.95334 1344.0
-247.31421 128.95334 1344.0
-240.81366 129.52902 1350.0
-233.20903 129.52902 1350.0
-226.43993 130.00876 1355.0
-217.99976 129.52902 1350.0
-210.39508 129.52902 1350.0
-202.79045 129.52902 1350.0
-195.90874 130.00876 1355.0
-188.2759 130.00876 1355.0
-180.64313 130.00876 1355.0
-173.01028 130.00876 1355.0
-165.37749 130.00876 1355.0
-158.32678 130.4885 1360.0
-110.5621 95.75552 998.0
-104.62486 95.46768 995.0
-99.31849 95.75552 998.0
-104.69997 130.4885 1360.0
-96.682205 130.00876 1355.0
-89.37801 130.4885 1360.0
-81.71706 130.4885 1360.0
-74.05606 130.4885 1360.0
-66.3951 130.4885 1360.0
-58.734104 130.4885 1360.0
-51.07315 130.4885 1360.0
-43.60372 131.06418 1366.0
-35.908924 131.06418 1366.0
-28.317442 131.54391 1371.0
-20.51937 131.06418 1366.0
-12.824618 131.06418 1366.0
-5.129867 131.06418 1366.0
2.5648844 131.06418 1366.0
10.259734 131.06418 1366.0
17.954485 131.06418 1366.0
25.649237 131.06418 1366.0
33.466038 131.54391 1371.0
41.03874 131.06418 1366.0
48.73359 131.06418 1366.0
56.634884 131.54391 1371.0
64.3578 131.54391 1371.0
72.3436 132.02365 1376.0
79.80364 131.54391 1371.0
87.84586 132.02365 1376.0
95.59694 132.02365 1376.0
103.34802 132.02365 1376.0
111.099106 132.02365 1376.0
118.41832 131.54391 1371.0
126.14133 131.54391 1371.0
134.35245 132.02365 1376.0
142.10353 132.02365 1376.0
149.85461 132.02365 1376.0
157.6057 132.02365 1376.0
166.0779 132.59933 1382.0
174.61761 133.17502 1388.0
181.64767 132.59933 1382.0
190.25499 133.17502 1388.0
198.07365 133.17502 1388.0
206.63412 133.65475 1393.0
214.48096 133.65475 1393.0
222.3278 133.65475 1393.0
230.17467 133.65475 1393.0
237.16714 133.17502 1388.0
244.98593 133.17502 1388.0
253.71527 133.65475 1393.0
262.68875 134.23044 1399.0
270.5694 134.23044 1399.0
278.45 134.23044 1399.0
287.35413 134.71017 1404.0
294.2114 134.23044 1399.0
303.17172 134.71017 1404.0
312.4099 135.28586 1410.0
320.35254 135.28586 1410.0
328.29526 135.28586 1410.0
337.66864 135.86154 1416.0
345.64505 135.86154 1416.0
353.62146 135.86154 1416.0
361.59787 135.86154 1416.0
369.57437 135.86154 1416.0
377.55078 135.86154 1416.0
387.16077 136.43723 1422.0
395.171 136.43723 1422.0
403.18115 136.43723 1422.0
411.1915 136.43723 1422.0
419.20166 136.43723 1422.0
429.01447 137.01291 1428.0
438.89487 137.58861 1434.0
446.97266 137.58861 1434.0
455.05054 137.58861 1434.0
465.06613 138.16429 1440.0
473.17773 138.16429 1440.0
479.28394 137.58861 1434.0
489.4009 138.16429 1440.0
497.5126 138.16429 1440.0
505.62424 138.16429 1440.0
515.8764 138.73996 1446.0
524.0218 138.73996 1446.0
532.1672 138.73996 1446.0
540.3127 138.73996 1446.0
548.45807 138.73996 1446.0
556.60345 138.73996 1446.0
567.0922 139.31564 1452.0
577.64856 139.89133 1458.0
583.4507 139.31564 1452.0
589.1851 138.73996 1446.0
597.33057 138.73996 1446.0
607.9883 139.31564 1452.0
616.1675 139.31564 1452.0
626.92676 139.89133 1458.0
635.1397 139.89133 1458.0
640.70514 139.31564 1452.0
651.5657 139.89133 1458.0
659.7787 139.89133 1458.0
670.7407 140.46703 1464.0
678.9875 140.46703 1464.0
687.2343 140.46703 1464.0
695.4811 140.46703 1464.0
703.7279 140.46703 1464.0
711.9748 140.46703 1464.0
720.22156 140.46703 1464.0
728.4684 140.46703 1464.0
736.71515 140.46703 1464.0
744.962 140.46703 1464.0
753.2088 140.46703 1464.0
764.57635 141.04271 1470.0
769.7024 140.46703 1464.0
777.9492 140.46703 1464.0
786.19604 140.46703 1464.0
797.69885 141.04271 1470.0
802.6897 140.46703 1464.0
810.93646 140.46703 1464.0
819.1833 140.46703 1464.0
827.43005 140.46703 1464.0
839.10187 141.04271 1470.0
847.38245 141.04271 1470.0
852.17053 140.46703 1464.0
863.94366 141.04271 1470.0
876.3777 141.71434 1477.0
888.2917 142.29001 1483.0
-755.64606 116.85268 1294.0
-748.3568 116.85268 1294.0
-741.0677 116.85268 1294.0
-739.4491 117.75571 1304.0
-729.2964 117.30419 1299.0
-721.9791 117.30419 1299.0
-714.6617 117.30419 1299.0
-704.6217 116.85268 1294.0
-697.3325 116.85268 1294.0
-692.7096 117.30419 1299.0
-688.0305 117.75571 1304.0
-678.07495 117.30419 1299.0
-670.75757 117.30419 1299.0
-663.44025 117.30419 1299.0
-658.6483 117.75571 1304.0
-653.80023 118.20723 1309.0
-646.42645 118.20723 1309.0
-641.4938 118.658745 1314.0
-631.67914 118.20723 1309.0
-626.69006 118.658745 1314.0
-616.93176 118.20723 1309.0
-611.88635 118.658745 1314.0
-604.48456 118.658745 1314.0
-599.3547 119.11026 1319.0
-591.9247 119.11026 1319.0
-582.279 118.658745 1314.0
-574.87714 118.658745 1314.0
-567.4753 118.658745 1314.0
-562.2046 119.11026 1319.0
-554.7746 119.11026 1319.0
-547.3446 119.11026 1319.0
-541.96124 119.56178 1324.0
-532.48456 119.11026 1319.0
-525.05457 119.11026 1319.0
-521.5489 120.0133 1329.0
-514.06256 120.0133 1329.0
-506.57617 120.0133 1329.0
-499.08984 120.0133 1329.0
-491.6035 120.0133 1329.0
-485.93848 120.46481 1334.0
-478.42398 120.46481 1334.0
-470.90945 120.46481 1334.0
-463.39496 120.46481 1334.0
-455.88046 120.46481 1334.0
-448.36594 120.46481 1334.0
-440.85144 120.46481 1334.0
-433.33688 120.46481 1334.0
-425.8224 120.46481 1334.0
-419.87576 120.91633 1339.0
-412.33307 120.91633 1339.0
-403.27887 120.46481 1334.0
-395.7643 120.46481 1334.0
-389.70505 120.91633 1339.0
-382.16238 120.91633 1339.0
-374.6197 120.91633 1339.0
-367.07703 120.91633 1339.0
-359.5343 120.91633 1339.0
-351.99164 120.91633 1339.0
-344.44897 120.91633 1339.0
-338.16434 121.36785 1344.0
-329.36362 120.91633 1339.0
-323.02264 121.36785 1344.0
-315.4518 121.36785 1344.0
-307.88098 121.36785 1344.0
-300.31012 121.36785 1344.0
-292.7393 121.36785 1344.0
-285.16843 121.36785 1344.0
-278.83688 121.90966 1350.0
-271.23224 121.90966 1350.0
-263.62756 121.90966 1350.0
-254.88507 121.36785 1344.0
-247.31421 121.36785 1344.0
-240.81366 121.90966 1350.0
-233.20903 121.90966 1350.0
-225.60435 121.90966 1350.0
-217.99976 121.90966 1350.0
-210.39508 121.90966 1350.0
-202.79045 121.90966 1350.0
-195.90874 122.361176 1355.0
-188.2759 122.361176 1355.0
-180.64313 122.361176 1355.0
-173.01028 122.361176 1355.0
-165.37749 122.361176 1355.0
-158.32678 122.8127 1360.0
-110.229744 89.85194 995.0
-104.94031 90.12285 998.0
-99.31849 90.12285 998.0
-104.69997 122.8127 1360.0
-96.682205 122.361176 1355.0
-89.37801 122.8127 1360.0
-81.71706 122.8127 1360.0
-74.05606 122.8127 1360.0
-66.3951 122.8127 1360.0
-58.734104 122.8127 1360.0
-51.07315 122.8127 1360.0
-43.60372 123.35452 1366.0
-35.908924 123.35452 1366.0
-28.317442 123.80604 1371.0
-20.51937 123.35452 1366.0
-12.871561 123.80604 1371.0
-5.129867 123.35452 1366.0
2.5536187 122.8127 1360.0
10.214669 122.8127 1360.0
17.954485 123.35452 1366.0
25.536575 122.8127 1360.0
33.343987 123.35452 1366.0
41.03874 123.35452 1366.0
48.73359 123.35452 1366.0
56.634884 123.80604 1371.0
64.3578 123.80604 1371.0
72.08072 123.80604 1371.0
79.80364 123.80604 1371.0
87.84586 124.25755 1376.0
95.59694 124.25755 1376.0
103.79867 124.799385 1382.0
111.099106 124.25755 1376.0
118.41832 123.80604 1371.0
126.14133 123.80604 1371.0
134.35245 124.25755 1376.0
142.10353 124.25755 1376.0
149.85461 124.25755 1376.0
157.6057 124.25755 1376.0
166.0779 124.799385 1382.0
173.8628 124.799385 1382.0
182.4363 125.341194 1388.0
190.25499 125.341194 1388.0
198.07365 125.341194 1388.0
205.89244 125.341194 1388.0
214.48096 125.79271 1393.0
222.3278 125.79271 1393.0
229.34848 125.341194 1388.0
237.16714 125.341194 1388.0
245.86844 125.79271 1393.0
253.71527 125.79271 1393.0
261.56213 125.79271 1393.0
270.5694 126.33454 1399.0
278.45 126.33454 1399.0
286.33078 126.33454 1399.0
294.2114 126.33454 1399.0
303.17172 126.78606 1404.0
312.4099 127.327866 1410.0
320.35254 127.327866 1410.0
328.29526 127.327866 1410.0
336.23788 127.327866 1410.0
345.64505 127.8697 1416.0
353.62146 127.8697 1416.0
361.59787 127.8697 1416.0
369.57437 127.8697 1416.0
377.55078 127.8697 1416.0
387.16077 128.41151 1422.0
395.171 128.41151 1422.0
403.18115 128.41151 1422.0
411.1915 128.41151 1422.0
419.20166 128.41151 1422.0
429.01447 128.95334 1428.0
437.05847 128.95334 1428.0
446.97266 129.49516 1434.0
455.05054 129.49516 1434.0
463.12833 129.49516 1434.0
471.20615 129.49516 1434.0
479.28394 129.49516 1434.0
489.4009 130.03697 1440.0
497.5126 130.03697 1440.0
505.62424 130.03697 1440.0
513.73584 130.03697 1440.0
521.8474 130.03697 1440.0
529.959 130.03697 1440.0
540.3127 130.5788 1446.0
548.45807 130.5788 1446.0
556.60345 130.5788 1446.0
567.0922 131.12062 1452.0
575.2714 131.12062 1452.0
585.8617 131.66245 1458.0
589.1851 130.5788 1446.0
599.8091 131.12062 1452.0
607.9883 131.12062 1452.0
616.1675 131.12062 1452.0
626.92676 131.66245 1458.0
635.1397 131.66245 1458.0
643.3527 131.66245 1458.0
648.88434 131.12062 1452.0
659.7787 131.66245 1458.0
670.7407 132.20427 1464.0
678.9875 132.20427 1464.0
687.2343 132.20427 1464.0
695.4811 132.20427 1464.0
703.7279 132.20427 1464.0
711.9748 132.20427 1464.0
720.22156 132.20427 1464.0
728.4684 132.20427 1464.0
736.71515 132.20427 1464.0
744.962 132.20427 1464.0
756.2958 132.74608 1470.0
761.4556 132.20427 1464.0
769.7024 132.20427 1464.0
777.9492 132.20427 1464.0
789.4181 132.74608 1470.0
797.69885 132.74608 1470.0
802.6897 132.20427 1464.0
810.93646 132.20427 1464.0
819.1833 132.20427 1464.0
827.43005 132.20427 1464.0
839.10187 132.74608 1470.0
847.38245 132.74608 1470.0
852.17053 132.20427 1464.0
863.94366 132.74608 1470.0
876.3777 133.3782 1477.0
888.2917 133.92003 1483.0
-755.64606 109.549385 1294.0
-748.3568 109.549385 1294.0
-741.0677 109.549385 1294.0
-736.6138 109.97269 1299.0
-726.48926 109.549385 1294.0
-721.9791 109.97269 1299.0
-717.41254 110.39598 1304.0
-707.34436 109.97269 1299.0
-697.3325 109.549385 1294.0
-692.7096 109.97269 1299.0
-688.0305 110.39598 1304.0
-680.68494 110.39598 1304.0
-668.1758 109.549385 1294.0
-660.8866 109.549385 1294.0
-656.1228 109.97269 1299.0
-651.30286 110.39598 1304.0
-646.42645 110.81928 1309.0
-639.0528 110.81928 1309.0
-631.67914 110.81928 1309.0
-626.69006 111.24258 1314.0
-616.93176 110.81928 1309.0
-611.88635 111.24258 1314.0
-604.48456 111.24258 1314.0
-599.3547 111.66588 1319.0
-589.68085 111.24258 1314.0
-582.279 111.24258 1314.0
-574.87714 111.24258 1314.0
-569.63464 111.66588 1319.0
-564.3358 112.08917 1324.0
-556.87756 112.08917 1324.0
-547.3446 111.66588 1319.0
-541.96124 112.08917 1324.0
-532.48456 111.66588 1319.0
-527.04486 112.08917 1324.0
-519.5867 112.08917 1324.0
-512.12854 112.08917 1324.0
-504.67032 112.08917 1324.0
-499.08984 112.512474 1329.0
-491.6035 112.512474 1329.0
-484.11713 112.512474 1329.0
-478.42398 112.93577 1334.0
-470.90945 112.93577 1334.0
-463.39496 112.93577 1334.0
-455.88046 112.93577 1334.0
-448.36594 112.93577 1334.0
-440.85144 112.93577 1334.0
-433.33688 112.93577 1334.0
-425.8224 112.93577 1334.0
-419.87576 113.35906 1339.0
-412.33307 113.35906 1339.0
-403.27887 112.93577 1334.0
-395.7643 112.93577 1334.0
-388.24982 112.93577 1334.0
-382.16238 113.35906 1339.0
-374.6197 113.35906 1339.0
-367.07703 113.35906 1339.0
-359.5343 113.35906 1339.0
-351.99164 113.35906 1339.0
-344.44897 113.35906 1339.0
-336.90628 113.35906 1339.0
-329.36362 113.35906 1339.0
-321.82092 113.35906 1339.0
-314.27826 113.35906 1339.0
-307.88098 113.782364 1344.0
-300.31012 113.782364 1344.0
-292.7393 113.782364 1344.0
-285.16843 113.782364 1344.0
-277.5976 113.782364 1344.0
-271.23224 114.29032 1350.0
-263.62756 114.29032 1350.0
-256.02295 114.29032 1350.0
-248.41829 114.29032 1350.0
-240.81366 114.29032 1350.0
-232.17255 113.782364 1344.0
-225.60435 114.29032 1350.0
-217.99976 114.29032 1350.0
-210.39508 114.29032 1350.0
-202.79045 114.29032 1350.0
-195.18582 114.29032 1350.0
-187.58115 114.29032 1350.0
-179.97655 114.29032 1350.0
-173.01028 114.713615 1355.0
-165.37749 114.713615 1355.0
-157.7447 114.713615 1355.0
-110.89445 84.744156 1001.0
-105.25577 84.744156 1001.0
-99.01993 84.2362 995.0
-103.930115 114.29032 1350.0
-96.682205 114.713615 1355.0
-89.049416 114.713615 1355.0
-81.416626 114.713615 1355.0
-74.05606 115.13692 1360.0
-66.3951 115.13692 1360.0
-58.734104 115.13692 1360.0
-51.07315 115.13692 1360.0
-43.412197 115.13692 1360.0
-35.751198 115.13692 1360.0
-28.214169 115.644875 1366.0
-20.51937 115.644875 1366.0
-12.824618 115.644875 1366.0
-5.129867 115.644875 1366.0
2.5536187 115.13692 1360.0
10.259734 115.644875 1366.0
17.954485 115.644875 1366.0
25.649237 115.644875 1366.0
33.343987 115.644875 1366.0
41.03874 115.644875 1366.0
48.91197 116.06817 1371.0
56.634884 116.06817 1371.0
64.3578 116.06817 1371.0
72.08072 116.06817 1371.0
79.80364 116.06817 1371.0
87.52665 116.06817 1371.0
95.59694 116.49147 1376.0
103.34802 116.49147 1376.0
111.099106 116.49147 1376.0
118.85018 116.49147 1376.0
126.14133 116.06817 1371.0
134.35245 116.49147 1376.0
142.10353 116.49147 1376.0
149.85461 116.49147 1376.0
158.29294 116.99942 1382.0
166.0779 116.99942 1382.0
174.61761 117.50738 1388.0
182.4363 117.50738 1388.0
189.43254 116.99942 1382.0
197.21744 116.99942 1382.0
205.89244 117.50738 1388.0
214.48096 117.93068 1393.0
222.3278 117.93068 1393.0
230.17467 117.93068 1393.0
238.0215 117.93068 1393.0
246.92746 118.43864 1399.0
253.71527 117.93068 1393.0
262.68875 118.43864 1399.0
270.5694 118.43864 1399.0
278.45 118.43864 1399.0
286.33078 118.43864 1399.0
294.2114 118.43864 1399.0
302.09204 118.43864 1399.0
312.4099 119.36989 1410.0
320.35254 119.36989 1410.0
328.29526 119.36989 1410.0
336.23788 119.36989 1410.0
345.64505 119.877846 1416.0
353.62146 119.877846 1416.0
361.59787 119.877846 1416.0
368.00836 119.36989 1410.0
377.55078 119.877846 1416.0
385.5272 119.877846 1416.0
395.171 120.3858 1422.0
403.18115 120.3858 1422.0
411.1915 120.3858 1422.0
419.20166 120.3858 1422.0
427.21188 120.3858 1422.0
435.2221 120.3858 1422.0
445.10245 120.89376 1428.0
453.14658 120.89376 1428.0
461.19058 120.89376 1428.0
471.20615 121.40172 1434.0
481.2893 121.909676 1440.0
489.4009 121.909676 1440.0
497.5126 121.909676 1440.0
505.62424 121.909676 1440.0
513.73584 121.909676 1440.0
521.8474 121.909676 1440.0
529.959 121.909676 1440.0
538.0707 121.909676 1440.0
548.45807 122.41763 1446.0
558.913 122.92559 1452.0
569.43555 123.43355 1458.0
577.64856 123.43355 1458.0
585.8617 123.43355 1458.0
589.1851 122.41763 1446.0
599.8091 122.92559 1452.0
607.9883 122.92559 1452.0
618.7136 123.43355 1458.0
626.92676 123.43355 1458.0
637.7535 123.941505 1464.0
643.3527 123.43355 1458.0
648.88434 122.92559 1452.0
659.7787 123.43355 1458.0
670.7407 123.941505 1464.0
678.9875 123.941505 1464.0
687.2343 123.941505 1464.0
695.4811 123.941505 1464.0
706.612 124.44946 1470.0
711.9748 123.941505 1464.0
720.22156 123.941505 1464.0
728.4684 123.941505 1464.0
736.71515 123.941505 1464.0
748.015 124.44946 1470.0
756.2958 124.44946 1470.0
761.4556 123.941505 1464.0
769.7024 123.941505 1464.0
781.1376 124.44946 1470.0
789.4181 124.44946 1470.0
797.69885 124.44946 1470.0
802.6897 123.941505 1464.0
810.93646 123.941505 1464.0
819.1833 123.941505 1464.0
827.43005 123.941505 1464.0
839.10187 124.44946 1470.0
847.38245 124.44946 1470.0
855.663 124.44946 1470.0
863.94366 124.44946 1470.0
876.3777 125.042076 1477.0
888.2917 125.55003 1483.0
-755.64606 102.2461 1294.0
-745.4652 101.85102 1289.0
-741.0677 102.2461 1294.0
-739.4491 103.036255 1304.0
-729.2964 102.64118 1299.0
-724.7581 103.036255 1304.0
-717.41254 103.036255 1304.0
-707.34436 102.64118 1299.0
-697.3325 102.2461 1294.0
-695.3759 103.036255 1304.0
-688.0305 103.036255 1304.0
-678.07495 102.64118 1299.0
-670.75757 102.64118 1299.0
-663.44025 102.64118 1299.0
-656.1228 102.64118 1299.0
-651.30286 103.036255 1304.0
-646.42645 103.431335 1309.0
-639.0528 103.431335 1309.0
-631.67914 103.431335 1309.0
-624.30536 103.431335 1309.0
-619.28827 103.82641 1314.0
-611.88635 103.82641 1314.0
-604.48456 103.82641 1314.0
-599.3547 104.22149 1319.0
-589.68085 103.82641 1314.0
-582.279 103.82641 1314.0
-574.87714 103.82641 1314.0
-569.63464 104.22149 1319.0
-564.3358 104.61657 1324.0
-554.7746 104.22149 1319.0
-547.3446 104.22149 1319.0
-539.91455 104.22149 1319.0
-532.48456 104.22149 1319.0
-525.05457 104.22149 1319.0
-519.5867 104.61657 1324.0
-512.12854 104.61657 1324.0
-504.67032 104.61657 1324.0
-497.21216 104.61657 1324.0
-487.90445 104.22149 1319.0
-482.29578 104.61657 1324.0
-476.6308 105.01164 1329.0
-470.90945 105.40672 1334.0
-463.39496 105.40672 1334.0
-455.88046 105.40672 1334.0
-448.36594 105.40672 1334.0
-440.85144 105.40672 1334.0
-434.9611 105.8018 1339.0
-427.41843 105.8018 1339.0
-418.3079 105.40672 1334.0
-412.33307 105.8018 1339.0
-403.27887 105.40672 1334.0
-397.2477 105.8018 1339.0
-389.70505 105.8018 1339.0
-382.16238 105.8018 1339.0
-374.6197 105.8018 1339.0
-368.44772 106.19688 1344.0
-359.5343 105.8018 1339.0
-353.30603 106.19688 1344.0
-345.7352 106.19688 1344.0
-338.16434 106.19688 1344.0
-329.36362 105.8018 1339.0
-321.82092 105.8018 1339.0
-314.27826 105.8018 1339.0
-307.88098 106.19688 1344.0
-300.31012 106.19688 1344.0
-292.7393 106.19688 1344.0
-285.16843 106.19688 1344.0
-277.5976 106.19688 1344.0
-271.23224 106.670975 1350.0
-262.4559 106.19688 1344.0
-256.02295 106.670975 1350.0
-248.41829 106.670975 1350.0
-240.81366 106.670975 1350.0
-233.20903 106.670975 1350.0
-225.60435 106.670975 1350.0
-217.99976 106.670975 1350.0
-211.17432 107.06605 1355.0
-203.54153 107.06605 1355.0
-195.18582 106.670975 1350.0
-187.58115 106.670975 1350.0
-179.97655 106.670975 1350.0
-173.01028 107.06605 1355.0
-165.37749 107.06605 1355.0
-157.16261 106.670975 1350.0
-111.2268 79.3316 1004.0
-105.57121 79.3316 1004.0
-99.31849 78.857506 998.0
-110.62594 105.8018 1339.0
-104.31504 107.06605 1355.0
-96.682205 107.06605 1355.0
-89.049416 107.06605 1355.0
-81.416626 107.06605 1355.0
-73.78379 107.06605 1355.0
-66.3951 107.46113 1360.0
-58.993225 107.93522 1366.0
-51.298473 107.93522 1366.0
-43.412197 107.46113 1360.0
-35.751198 107.46113 1360.0
-28.090242 107.46113 1360.0
-20.429241 107.46113 1360.0
-12.768288 107.46113 1360.0
-5.129867 107.93522 1366.0
2.5536187 107.46113 1360.0
10.297288 108.3303 1371.0
17.954485 107.93522 1366.0
25.649237 107.93522 1366.0
33.343987 107.93522 1366.0
41.188953 108.3303 1371.0
48.91197 108.3303 1371.0
56.634884 108.3303 1371.0
64.3578 108.3303 1371.0
72.08072 108.3303 1371.0
79.80364 108.3303 1371.0
87.52665 108.3303 1371.0
95.59694 108.72538 1376.0
103.34802 108.72538 1376.0
111.099106 108.72538 1376.0
118.85018 108.72538 1376.0
126.60137 108.72538 1376.0
134.35245 108.72538 1376.0
142.10353 108.72538 1376.0
150.50806 109.19947 1382.0
158.29294 109.19947 1382.0
166.0779 109.19947 1382.0
173.8628 109.19947 1382.0
181.64767 109.19947 1382.0
190.25499 109.67356 1388.0
198.07365 109.67356 1388.0
205.89244 109.67356 1388.0
214.48096 110.068634 1393.0
222.3278 110.068634 1393.0
230.17467 110.068634 1393.0
238.0215 110.068634 1393.0
246.92746 110.54273 1399.0
254.80809 110.54273 1399.0
262.68875 110.54273 1399.0
270.5694 110.54273 1399.0
278.45 110.54273 1399.0
286.33078 110.54273 1399.0
294.2114 110.54273 1399.0
302.09204 110.54273 1399.0
312.4099 111.4119 1410.0
320.35254 111.4119 1410.0
328.29526 111.4119 1410.0
336.23788 111.4119 1410.0
345.64505 111.886 1416.0
353.62146 111.886 1416.0
361.59787 111.886 1416.0
369.57437 111.886 1416.0
377.55078 111.886 1416.0
385.5272 111.886 1416.0
393.50357 111.886 1416.0
403.18115 112.36009 1422.0
411.1915 112.36009 1422.0
419.20166 112.36009 1422.0
427.21188 112.36009 1422.0
435.2221 112.36009 1422.0
445.10245 112.83419 1428.0
453.14658 112.83419 1428.0
461.19058 112.83419 1428.0
471.20615 113.30827 1434.0
481.2893 113.78237 1440.0
489.4009 113.78237 1440.0
497.5126 113.78237 1440.0
505.62424 113.78237 1440.0
513.73584 113.78237 1440.0
521.8474 113.78237 1440.0
529.959 113.78237 1440.0
538.0707 113.78237 1440.0
548.45807 114.25646 1446.0
558.913 114.73056 1452.0
567.0922 114.73056 1452.0
575.2714 114.73056 1452.0
583.4507 114.73056 1452.0
589.1851 114.25646 1446.0
599.8091 114.73056 1452.0
607.9883 114.73056 1452.0
618.7136 115.20465 1458.0
626.92676 115.20465 1458.0
635.1397 115.20465 1458.0
643.3527 115.20465 1458.0
648.88434 114.73056 1452.0
659.7787 115.20465 1458.0
667.9918 115.20465 1458.0
678.9875 115.67874 1464.0
687.2343 115.67874 1464.0
698.3314 116.15284 1470.0
703.7279 115.67874 1464.0
711.9748 115.67874 1464.0
720.22156 115.67874 1464.0
728.4684 115.67874 1464.0
736.71515 115.67874 1464.0
744.962 115.67874 1464.0
756.2958 116.15284 1470.0
764.57635 116.15284 1470.0
772.85693 116.15284 1470.0
781.1376 116.15284 1470.0
789.4181 116.15284 1470.0
797.69885 116.15284 1470.0
802.6897 115.67874 1464.0
810.93646 115.67874 1464.0
819.1833 115.67874 1464.0
827.43005 115.67874 1464.0
835.67694 115.67874 1464.0
847.38245 116.15284 1470.0
859.7376 116.70594 1477.0
868.0576 116.70594 1477.0
876.3777 116.70594 1477.0
888.2917 117.18004 1483.0
-755.64606 94.94282 1294.0
-748.3568 94.94282 1294.0
-743.93115 95.30967 1299.0
-736.6138 95.30967 1299.0
-729.2964 95.30967 1299.0
-721.9791 95.30967 1299.0
-714.6617 95.30967 1299.0
-704.6217 94.94282 1294.0
-697.3325 94.94282 1294.0
-692.7096 95.30967 1299.0
-685.39233 95.30967 1299.0
-678.07495 95.30967 1299.0
-670.75757 95.30967 1299.0
-665.9939 95.67653 1304.0
-656.1228 95.30967 1299.0
-651.30286 95.67653 1304.0
-646.42645 96.04339 1309.0
-636.6118 95.67653 1304.0
-629.2663 95.67653 1304.0
-624.30536 96.04339 1309.0
-619.28827 96.41025 1314.0
-611.88635 96.41025 1314.0
-604.48456 96.41025 1314.0
-599.3547 96.7771 1319.0
-589.68085 96.41025 1314.0
-582.279 96.41025 1314.0
-574.87714 96.41025 1314.0
-569.63464 96.7771 1319.0
-562.2046 96.7771 1319.0
-556.87756 97.14396 1324.0
-549.41943 97.14396 1324.0
-541.96124 97.14396 1324.0
-532.48456 96.7771 1319.0
-525.05457 96.7771 1319.0
-517.6245 96.7771 1319.0
-512.12854 97.14396 1324.0
-504.67032 97.14396 1324.0
-495.33444 96.7771 1319.0
-489.75397 97.14396 1324.0
-482.29578 97.14396 1324.0
-476.6308 97.51082 1329.0
-470.90945 97.87768 1334.0
-463.39496 97.87768 1334.0
-455.88046 97.87768 1334.0
-448.36594 97.87768 1334.0
-442.50378 98.24454 1339.0
-434.9611 98.24454 1339.0
-427.41843 98.24454 1339.0
-419.87576 98.24454 1339.0
-412.33307 98.24454 1339.0
-404.7904 98.24454 1339.0
-397.2477 98.24454 1339.0
-388.24982 97.87768 1334.0
-382.16238 98.24454 1339.0
-374.6197 98.24454 1339.0
-368.44772 98.61139 1344.0
-360.87686 98.61139 1344.0
-353.30603 98.61139 1344.0
-345.7352 98.61139 1344.0
-338.16434 98.61139 1344.0
-329.36362 98.24454 1339.0
-321.82092 98.24454 1339.0
-315.4518 98.61139 1344.0
-307.88098 98.61139 1344.0
-300.31012 98.61139 1344.0
-292.7393 98.61139 1344.0
-285.16843 98.61139 1344.0
-277.5976 98.61139 1344.0
-270.02676 98.61139 1344.0
-262.4559 98.61139 1344.0
-254.88507 98.61139 1344.0
-248.41829 99.05163 1350.0
-240.81366 99.05163 1350.0
-233.20903 99.05163 1350.0
-225.60435 99.05163 1350.0
-217.99976 99.05163 1350.0
-211.17432 99.41848 1355.0
-203.54153 99.41848 1355.0
-195.18582 99.05163 1350.0
-187.58115 99.05163 1350.0
-179.97655 99.05163 1350.0
-173.01028 99.41848 1355.0
-165.37749 99.41848 1355.0
-116.183914 73.22483 998.0
-110.89445 73.44495 1001.0
-105.57121 73.66506 1004.0
-118.16864 98.24454 1339.0
-111.03903 98.61139 1344.0
-104.31504 99.41848 1355.0
-96.682205 99.41848 1355.0
-89.37801 99.78534 1360.0
-81.71706 99.78534 1360.0
-74.05606 99.78534 1360.0
-66.3951 99.78534 1360.0
-58.734104 99.78534 1360.0
-51.07315 99.78534 1360.0
-43.412197 99.78534 1360.0
-35.751198 99.78534 1360.0
-28.090242 99.78534 1360.0
-20.429241 99.78534 1360.0
-12.768288 99.78534 1360.0
-5.129867 100.22557 1366.0
2.5536187 99.78534 1360.0
10.259734 100.22557 1366.0
17.954485 100.22557 1366.0
25.536575 99.78534 1360.0
33.343987 100.22557 1366.0
41.188953 100.59243 1371.0
48.91197 100.59243 1371.0
56.634884 100.59243 1371.0
64.3578 100.59243 1371.0
72.08072 100.59243 1371.0
79.80364 100.59243 1371.0
87.84586 100.95929 1376.0
95.59694 100.95929 1376.0
102.97249 100.59243 1371.0
111.099106 100.95929 1376.0
119.36842 101.39951 1382.0
126.60137 100.95929 1376.0
134.93828 101.39951 1382.0
142.72318 101.39951 1382.0
150.50806 101.39951 1382.0
158.98016 101.839745 1388.0
166.0779 101.39951 1382.0
173.8628 101.39951 1382.0
181.64767 101.39951 1382.0
190.25499 101.839745 1388.0
198.07365 101.839745 1388.0
205.0024 101.39951 1382.0
213.7111 101.839745 1388.0
221.52979 101.839745 1388.0
230.17467 102.206604 1393.0
238.0215 102.206604 1393.0
245.86844 102.206604 1393.0
253.71527 102.206604 1393.0
262.68875 102.646835 1399.0
270.5694 102.646835 1399.0
278.45 102.646835 1399.0
286.33078 102.646835 1399.0
294.2114 102.646835 1399.0
302.09204 102.646835 1399.0
311.08054 103.013695 1404.0
320.35254 103.45392 1410.0
328.29526 103.45392 1410.0
336.23788 103.45392 1410.0
344.18045 103.45392 1410.0
352.12305 103.45392 1410.0
360.06567 103.45392 1410.0
369.57437 103.89415 1416.0
377.55078 103.89415 1416.0
385.5272 103.89415 1416.0
393.50357 103.89415 1416.0
403.18115 104.33437 1422.0
411.1915 104.33437 1422.0
419.20166 104.33437 1422.0
427.21188 104.33437 1422.0
437.05847 104.774605 1428.0
445.10245 104.774605 1428.0
451.2426 104.33437 1422.0
459.25278 104.33437 1422.0
469.23456 104.774605 1428.0
479.28394 105.21484 1434.0
487.36176 105.21484 1434.0
497.5126 105.65507 1440.0
505.62424 105.65507 1440.0
513.73584 105.65507 1440.0
521.8474 105.65507 1440.0
532.1672 106.0953 1446.0
540.3127 106.0953 1446.0
548.45807 106.0953 1446.0
556.60345 106.0953 1446.0
567.0922 106.53552 1452.0
575.2714 106.53552 1452.0
583.4507 106.53552 1452.0
589.1851 106.0953 1446.0
597.33057 106.0953 1446.0
605.47595 106.0953 1446.0
618.7136 106.97575 1458.0
624.34674 106.53552 1452.0
635.1397 106.97575 1458.0
643.3527 106.97575 1458.0
651.5657 106.97575 1458.0
659.7787 106.97575 1458.0
667.9918 106.97575 1458.0
678.9875 107.415985 1464.0
687.2343 107.415985 1464.0
698.3314 107.85621 1470.0
703.7279 107.415985 1464.0
711.9748 107.415985 1464.0
720.22156 107.415985 1464.0
728.4684 107.415985 1464.0
736.71515 107.415985 1464.0
744.962 107.415985 1464.0
756.2958 107.85621 1470.0
764.57635 107.85621 1470.0
772.85693 107.85621 1470.0
781.1376 107.85621 1470.0
789.4181 107.85621 1470.0
801.4974 108.36982 1477.0
805.9794 107.85621 1470.0
810.93646 107.415985 1464.0
819.1833 107.415985 1464.0
827.43005 107.415985 1464.0
839.10187 107.85621 1470.0
847.38245 107.85621 1470.0
859.7376 108.36982 1477.0
868.0576 108.36982 1477.0
879.93774 108.81004 1483.0
888.2917 108.81004 1483.0
-755.64606 87.639496 1294.0
-745.4652 87.300865 1289.0
-738.20416 87.300865 1289.0
-733.7785 87.639496 1294.0
-729.2964 87.978134 1299.0
-721.9791 87.978134 1299.0
-711.9109 87.639496 1294.0
-704.6217 87.639496 1294.0
-697.3325 87.639496 1294.0
-692.7096 87.978134 1299.0
-685.39233 87.978134 1299.0
-678.07495 87.978134 1299.0
-668.1758 87.639496 1294.0
-663.44025 87.978134 1299.0
-656.1228 87.978134 1299.0
-653.80023 88.65541 1309.0
-643.95734 88.31677 1304.0
-636.6118 88.31677 1304.0
-631.67914 88.65541 1309.0
-626.69006 88.99405 1314.0
-619.28827 88.99405 1314.0
-611.88635 88.99405 1314.0
-602.1844 88.65541 1309.0
-597.0827 88.99405 1314.0
-589.68085 88.99405 1314.0
-582.279 88.99405 1314.0
-574.87714 88.99405 1314.0
-569.63464 89.33269 1319.0
-562.2046 89.33269 1319.0
-554.7746 89.33269 1319.0
-549.41943 89.671326 1324.0
-539.91455 89.33269 1319.0
-532.48456 89.33269 1319.0
-525.05457 89.33269 1319.0
-517.6245 89.33269 1319.0
-514.06256 90.009964 1329.0
-506.57617 90.009964 1329.0
-497.21216 89.671326 1324.0
-489.75397 89.671326 1324.0
-484.11713 90.009964 1329.0
-476.6308 90.009964 1329.0
-469.14444 90.009964 1329.0
-463.39496 90.3486 1334.0
-455.88046 90.3486 1334.0
-448.36594 90.3486 1334.0
-442.50378 90.68724 1339.0
-434.9611 90.68724 1339.0
-427.41843 90.68724 1339.0
-419.87576 90.68724 1339.0
-412.33307 90.68724 1339.0
-404.7904 90.68724 1339.0
-397.2477 90.68724 1339.0
-389.70505 90.68724 1339.0
-382.16238 90.68724 1339.0
-374.6197 90.68724 1339.0
-368.44772 91.02588 1344.0
-359.5343 90.68724 1339.0
-351.99164 90.68724 1339.0
-344.44897 90.68724 1339.0
-336.90628 90.68724 1339.0
-330.5935 91.02588 1344.0
-323.02264 91.02588 1344.0
-315.4518 91.02588 1344.0
-307.88098 91.02588 1344.0
-300.31012 91.02588 1344.0
-292.7393 91.02588 1344.0
-285.16843 91.02588 1344.0
-277.5976 91.02588 1344.0
-270.02676 91.02588 1344.0
-262.4559 91.02588 1344.0
-256.02295 91.43224 1350.0
-248.41829 91.43224 1350.0
-240.81366 91.43224 1350.0
-233.20903 91.43224 1350.0
-225.60435 91.43224 1350.0
-217.99976 91.43224 1350.0
-211.17432 91.77088 1355.0
-203.54153 91.77088 1355.0
-195.18582 91.43224 1350.0
-188.2759 91.77088 1355.0
-180.64313 91.77088 1355.0
-173.01028 91.77088 1355.0
-121.80571 67.59213 998.0
-116.183914 67.59213 998.0
-110.89445 67.79532 1001.0
-105.57121 67.9985 1004.0
-111.53474 91.43224 1350.0
-104.31504 91.77088 1355.0
-96.682205 91.77088 1355.0
-89.049416 91.77088 1355.0
-81.71706 92.10952 1360.0
-74.05606 92.10952 1360.0
-66.3951 92.10952 1360.0
-58.734104 92.10952 1360.0
-51.07315 92.10952 1360.0
-43.412197 92.10952 1360.0
-35.908924 92.515884 1366.0
-28.090242 92.10952 1360.0
-20.429241 92.10952 1360.0
-12.768288 92.10952 1360.0
-5.129867 92.515884 1366.0
2.5536187 92.10952 1360.0
10.259734 92.515884 1366.0
18.020205 92.85452 1371.0
25.536575 92.10952 1360.0
33.343987 92.515884 1366.0
41.03874 92.515884 1366.0
48.91197 92.85452 1371.0
56.634884 92.85452 1371.0
64.3578 92.85452 1371.0
72.08072 92.85452 1371.0
79.80364 92.85452 1371.0
87.84586 93.19315 1376.0
95.59694 93.19315 1376.0
102.97249 92.85452 1371.0
111.099106 93.19315 1376.0
119.36842 93.599525 1382.0
127.15341 93.599525 1382.0
134.93828 93.599525 1382.0
142.10353 93.19315 1376.0
149.85461 93.19315 1376.0
158.29294 93.599525 1382.0
166.0779 93.599525 1382.0
173.8628 93.599525 1382.0
181.64767 93.599525 1382.0
190.25499 94.00589 1388.0
198.07365 94.00589 1388.0
205.0024 93.599525 1382.0
212.7873 93.599525 1382.0
221.52979 94.00589 1388.0
230.17467 94.34453 1393.0
238.0215 94.34453 1393.0
245.86844 94.34453 1393.0
253.71527 94.34453 1393.0
262.68875 94.75089 1399.0
270.5694 94.75089 1399.0
278.45 94.75089 1399.0
286.33078 94.75089 1399.0
294.2114 94.75089 1399.0
302.09204 94.75089 1399.0
311.08054 95.08953 1404.0
318.98935 95.08953 1404.0
326.89822 95.08953 1404.0
334.80704 95.08953 1404.0
344.18045 95.495895 1410.0
352.12305 95.495895 1410.0
360.06567 95.495895 1410.0
369.57437 95.90226 1416.0
377.55078 95.90226 1416.0
385.5272 95.90226 1416.0
395.171 96.30863 1422.0
403.18115 96.30863 1422.0
411.1915 96.30863 1422.0
419.20166 96.30863 1422.0
427.21188 96.30863 1422.0
435.2221 96.30863 1422.0
445.10245 96.715 1428.0
453.14658 96.715 1428.0
461.19058 96.715 1428.0
471.20615 97.12135 1434.0
481.2893 97.527725 1440.0
489.4009 97.527725 1440.0
497.5126 97.527725 1440.0
505.62424 97.527725 1440.0
513.73584 97.527725 1440.0
521.8474 97.527725 1440.0
529.959 97.527725 1440.0
538.0707 97.527725 1440.0
546.1823 97.527725 1440.0
556.60345 97.93409 1446.0
564.74884 97.93409 1446.0
572.8942 97.93409 1446.0
581.03973 97.93409 1446.0
589.1851 97.93409 1446.0
597.33057 97.93409 1446.0
605.47595 97.93409 1446.0
616.1675 98.34046 1452.0
624.34674 98.34046 1452.0
632.526 98.34046 1452.0
643.3527 98.74682 1458.0
651.5657 98.74682 1458.0
659.7787 98.74682 1458.0
667.9918 98.74682 1458.0
676.2048 98.74682 1458.0
687.2343 99.15318 1464.0
695.4811 99.15318 1464.0
703.7279 99.15318 1464.0
711.9748 99.15318 1464.0
720.22156 99.15318 1464.0
728.4684 99.15318 1464.0
736.71515 99.15318 1464.0
744.962 99.15318 1464.0
756.2958 99.559555 1470.0
764.57635 99.559555 1470.0
772.85693 99.559555 1470.0
777.9492 99.15318 1464.0
786.19604 99.15318 1464.0
797.69885 99.559555 1470.0
802.6897 99.15318 1464.0
810.93646 99.15318 1464.0
819.1833 99.15318 1464.0
827.43005 99.15318 1464.0
839.10187 99.559555 1470.0
847.38245 99.559555 1470.0
855.663 99.559555 1470.0
868.0576 100.03364 1477.0
876.3777 100.03364 1477.0
888.2917 100.44001 1483.0
-752.72626 80.025795 1289.0
-742.57355 79.71538 1284.0
-738.20416 80.025795 1289.0
-736.6138 80.64663 1299.0
-729.2964 80.64663 1299.0
-724.7581 80.95705 1304.0
-714.6617 80.64663 1299.0
-707.34436 80.64663 1299.0
-700.02704 80.64663 1299.0
-692.7096 80.64663 1299.0
-685.39233 80.64663 1299.0
-678.07495 80.64663 1299.0
-670.75757 80.64663 1299.0
-663.44025 80.64663 1299.0
-656.1228 80.64663 1299.0
-653.80023 81.26746 1309.0
-641.48816 80.64663 1299.0
-636.6118 80.95705 1304.0
-631.67914 81.26746 1309.0
-626.69006 81.57789 1314.0
-619.28827 81.57789 1314.0
-609.55804 81.26746 1309.0
-599.8842 80.95705 1304.0
-594.81067 81.26746 1309.0
-587.437 81.26746 1309.0
-580.0633 81.26746 1309.0
-572.68964 81.26746 1309.0
-567.4753 81.57789 1314.0
-560.0734 81.57789 1314.0
-554.7746 81.888306 1319.0
-551.49426 82.50914 1329.0
-541.96124 82.19872 1324.0
-534.50305 82.19872 1324.0
-527.04486 82.19872 1324.0
-519.5867 82.19872 1324.0
-510.1945 81.888306 1319.0
-504.67032 82.19872 1324.0
-499.08984 82.50914 1329.0
-491.6035 82.50914 1329.0
-484.11713 82.50914 1329.0
-476.6308 82.50914 1329.0
-469.14444 82.50914 1329.0
-463.39496 82.81956 1334.0
-455.88046 82.81956 1334.0
-448.36594 82.81956 1334.0
-442.50378 83.129974 1339.0
-434.9611 83.129974 1339.0
-427.41843 83.129974 1339.0
-419.87576 83.129974 1339.0
-412.33307 83.129974 1339.0
-404.7904 83.129974 1339.0
-395.7643 82.81956 1334.0
-389.70505 83.129974 1339.0
-382.16238 83.129974 1339.0
-374.6197 83.129974 1339.0
-367.07703 83.129974 1339.0
-359.5343 83.129974 1339.0
-351.99164 83.129974 1339.0
-344.44897 83.129974 1339.0
-336.90628 83.129974 1339.0
-330.5935 83.44039 1344.0
-321.82092 83.129974 1339.0
-315.4518 83.44039 1344.0
-307.88098 83.44039 1344.0
-300.31012 83.44039 1344.0
-292.7393 83.44039 1344.0
-286.4415 83.8129 1350.0
-278.83688 83.8129 1350.0
-270.02676 83.44039 1344.0
-263.62756 83.8129 1350.0
-256.02295 83.8129 1350.0
-248.41829 83.8129 1350.0
-240.81366 83.8129 1350.0
-233.20903 83.8129 1350.0
-225.60435 83.8129 1350.0
-217.99976 83.8129 1350.0
-210.39508 83.8129 1350.0
-202.79045 83.8129 1350.0
-195.18582 83.8129 1350.0
-187.58115 83.8129 1350.0
-180.64313 84.123314 1355.0
-173.01028 84.123314 1355.0
-165.37749 84.123314 1355.0
-116.53317 62.145706 1001.0
-110.89445 62.145706 1001.0
-105.886665 62.518215 1007.0
-111.53474 83.8129 1350.0
-104.31504 84.123314 1355.0
-96.682205 84.123314 1355.0
-89.049416 84.123314 1355.0
-81.416626 84.123314 1355.0
-74.05606 84.43373 1360.0
-66.3951 84.43373 1360.0
-58.734104 84.43373 1360.0
-51.07315 84.43373 1360.0
-43.412197 84.43373 1360.0
-35.908924 84.80623 1366.0
-28.090242 84.43373 1360.0
-20.429241 84.43373 1360.0
-12.824618 84.80623 1366.0
-5.129867 84.80623 1366.0
2.5536187 84.43373 1360.0
10.259734 84.80623 1366.0
17.875622 84.43373 1360.0
25.536575 84.43373 1360.0
33.343987 84.80623 1366.0
41.188953 85.116646 1371.0
48.91197 85.116646 1371.0
56.428337 84.80623 1366.0
64.12309 84.80623 1366.0
72.08072 85.116646 1371.0
79.80364 85.116646 1371.0
87.84586 85.42707 1376.0
95.59694 85.42707 1376.0
102.97249 85.116646 1371.0
111.099106 85.42707 1376.0
118.85018 85.42707 1376.0
127.15341 85.79957 1382.0
134.93828 85.79957 1382.0
142.10353 85.42707 1376.0
150.50806 85.79957 1382.0
158.29294 85.79957 1382.0
166.0779 85.79957 1382.0
174.61761 86.17207 1388.0
182.4363 86.17207 1388.0
190.25499 86.17207 1388.0
198.07365 86.17207 1388.0
205.89244 86.17207 1388.0
213.7111 86.17207 1388.0
222.3278 86.48249 1393.0
230.17467 86.48249 1393.0
238.0215 86.48249 1393.0
244.98593 86.17207 1388.0
253.71527 86.48249 1393.0
261.56213 86.48249 1393.0
270.5694 86.854996 1399.0
278.45 86.854996 1399.0
286.33078 86.854996 1399.0
294.2114 86.854996 1399.0
302.09204 86.854996 1399.0
309.9727 86.854996 1399.0
317.85336 86.854996 1399.0
325.73407 86.854996 1399.0
334.80704 87.16541 1404.0
344.18045 87.53791 1410.0
352.12305 87.53791 1410.0
360.06567 87.53791 1410.0
369.57437 87.910416 1416.0
377.55078 87.910416 1416.0
385.5272 87.910416 1416.0
395.171 88.28291 1422.0
403.18115 88.28291 1422.0
411.1915 88.28291 1422.0
419.20166 88.28291 1422.0
427.21188 88.28291 1422.0
435.2221 88.28291 1422.0
445.10245 88.65541 1428.0
453.14658 88.65541 1428.0
461.19058 88.65541 1428.0
471.20615 89.02792 1434.0
479.28394 89.02792 1434.0
487.36176 89.02792 1434.0
495.43964 89.02792 1434.0
503.51743 89.02792 1434.0
513.73584 89.40042 1440.0
521.8474 89.40042 1440.0
529.959 89.40042 1440.0
538.0707 89.40042 1440.0
548.45807 89.77292 1446.0
556.60345 89.77292 1446.0
564.74884 89.77292 1446.0
572.8942 89.77292 1446.0
581.03973 89.77292 1446.0
589.1851 89.77292 1446.0
597.33057 89.77292 1446.0
605.47595 89.77292 1446.0
616.1675 90.145424 1452.0
624.34674 90.145424 1452.0
635.1397 90.51792 1458.0
640.70514 90.145424 1452.0
648.88434 90.145424 1452.0
657.0636 90.145424 1452.0
667.9918 90.51792 1458.0
676.2048 90.51792 1458.0
687.2343 90.89043 1464.0
695.4811 90.89043 1464.0
703.7279 90.89043 1464.0
711.9748 90.89043 1464.0
720.22156 90.89043 1464.0
728.4684 90.89043 1464.0
739.7345 91.26293 1470.0
744.962 90.89043 1464.0
753.2088 90.89043 1464.0
761.4556 90.89043 1464.0
772.85693 91.26293 1470.0
777.9492 90.89043 1464.0
786.19604 90.89043 1464.0
797.69885 91.26293 1470.0
802.6897 90.89043 1464.0
810.93646 90.89043 1464.0
819.1833 90.89043 1464.0
827.43005 90.89043 1464.0
835.67694 90.89043 1464.0
847.38245 91.26293 1470.0
855.663 91.26293 1470.0
863.94366 91.26293 1470.0
876.3777 91.69751 1477.0
888.2917 92.070015 1483.0
-752.72626 72.750725 1289.0
-742.57355 72.46853 1284.0
-741.0677 73.03293 1294.0
-736.6138 73.315125 1299.0
-732.1035 73.59732 1304.0
-724.7581 73.59732 1304.0
-717.41254 73.59732 1304.0
-707.34436 73.315125 1299.0
-702.7215 73.59732 1304.0
-695.3759 73.59732 1304.0
-688.0305 73.59732 1304.0
-680.68494 73.59732 1304.0
-670.75757 73.315125 1299.0
-663.44025 73.315125 1299.0
-658.6483 73.59732 1304.0
-651.30286 73.59732 1304.0
-643.95734 73.59732 1304.0
-639.0528 73.879524 1309.0
-631.67914 73.879524 1309.0
-624.30536 73.879524 1309.0
-616.93176 73.879524 1309.0
-607.2297 73.59732 1304.0
-599.8842 73.59732 1304.0
-592.5387 73.59732 1304.0
-585.1932 73.59732 1304.0
-582.279 74.16172 1314.0
-574.87714 74.16172 1314.0
-567.4753 74.16172 1314.0
-562.2046 74.44392 1319.0
-554.7746 74.44392 1319.0
-547.3446 74.44392 1319.0
-539.91455 74.44392 1319.0
-532.48456 74.44392 1319.0
-527.04486 74.72611 1324.0
-519.5867 74.72611 1324.0
-510.1945 74.44392 1319.0
-504.67032 74.72611 1324.0
-499.08984 75.008316 1329.0
-491.6035 75.008316 1329.0
-484.11713 75.008316 1329.0
-476.6308 75.008316 1329.0
-469.14444 75.008316 1329.0
-461.65808 75.008316 1329.0
-455.88046 75.29051 1334.0
-448.36594 75.29051 1334.0
-442.50378 75.57271 1339.0
-433.33688 75.29051 1334.0
-425.8224 75.29051 1334.0
-419.87576 75.57271 1339.0
-410.79337 75.29051 1334.0
-403.27887 75.29051 1334.0
-395.7643 75.29051 1334.0
-389.70505 75.57271 1339.0
-382.16238 75.57271 1339.0
-374.6197 75.57271 1339.0
-367.07703 75.57271 1339.0
-359.5343 75.57271 1339.0
-351.99164 75.57271 1339.0
-344.44897 75.57271 1339.0
-336.90628 75.57271 1339.0
-329.36362 75.57271 1339.0
-321.82092 75.57271 1339.0
-314.27826 75.57271 1339.0
-307.88098 75.85491 1344.0
-300.31012 75.85491 1344.0
-292.7393 75.85491 1344.0
-286.4415 76.19355 1350.0
-277.5976 75.85491 1344.0
-270.02676 75.85491 1344.0
-262.4559 75.85491 1344.0
-256.02295 76.19355 1350.0
-248.41829 76.19355 1350.0
-239.74338 75.85491 1344.0
-232.17255 75.85491 1344.0
-224.60168 75.85491 1344.0
-217.99976 76.19355 1350.0
-210.39508 76.19355 1350.0
-202.79045 76.19355 1350.0
-195.18582 76.19355 1350.0
-187.58115 76.19355 1350.0
-179.97655 76.19355 1350.0
-173.01028 76.475746 1355.0
-121.19546 56.044586 993.0
-116.183914 56.326786 998.0
-110.89445 56.496105 1001.0
-105.25577 56.496105 1001.0
-111.53474 76.19355 1350.0
-104.31504 76.475746 1355.0
-96.682205 76.475746 1355.0
-89.049416 76.475746 1355.0
-81.416626 76.475746 1355.0
-74.05606 76.75794 1360.0
-66.3951 76.75794 1360.0
-58.734104 76.75794 1360.0
-51.07315 76.75794 1360.0
-43.412197 76.75794 1360.0
-35.751198 76.75794 1360.0
-28.090242 76.75794 1360.0
-20.429241 76.75794 1360.0
-12.824618 77.09658 1366.0
-5.148644 77.37878 1371.0
2.5536187 76.75794 1360.0
10.259734 77.09658 1366.0
17.875622 76.75794 1360.0
25.649237 77.09658 1366.0
33.343987 77.09658 1366.0
41.03874 77.09658 1366.0
48.91197 77.37878 1371.0
56.428337 77.09658 1366.0
64.12309 77.09658 1366.0
72.08072 77.37878 1371.0
79.80364 77.37878 1371.0
87.52665 77.37878 1371.0
95.59694 77.66098 1376.0
103.34802 77.66098 1376.0
111.099106 77.66098 1376.0
118.85018 77.66098 1376.0
126.60137 77.66098 1376.0
134.35245 77.66098 1376.0
142.10353 77.66098 1376.0
149.85461 77.66098 1376.0
158.29294 77.99962 1382.0
166.0779 77.99962 1382.0
174.61761 78.33826 1388.0
182.4363 78.33826 1388.0
190.25499 78.33826 1388.0
198.07365 78.33826 1388.0
205.89244 78.33826 1388.0
214.48096 78.62045 1393.0
222.3278 78.62045 1393.0
230.17467 78.62045 1393.0
238.0215 78.62045 1393.0
245.86844 78.62045 1393.0
