ply
format ascii 1.0
element vertex 1732
property float x
property float y
property float z
end_header
-318.03363 374.73114 1355.0
-310.40088 374.73114 1355.0
-302.768 374.73114 1355.0
-295.13522 374.73114 1355.0
-288.5633 376.11392 1360.0
-280.90234 376.11392 1360.0
-273.24136 376.11392 1360.0
-265.58035 376.11392 1360.0
-256.9712 374.73114 1355.0
-249.33835 374.73114 1355.0
-241.70557 374.73114 1355.0
-233.20903 373.3484 1350.0
-224.60168 371.68906 1344.0
-133.09062 245.02715 886.0
-128.09973 245.02715 886.0
-123.38672 245.58028 888.0
-118.38457 245.58028 888.0
-113.127014 245.02715 886.0
-108.38023 245.58028 888.0
-103.378075 245.58028 888.0
-63.2218 266.04532 962.0
-57.622547 265.21564 959.0
-52.38377 266.04532 962.0
-47.111237 266.87494 965.0
-41.6753 266.87494 965.0
-36.352066 267.70462 968.0
-31.314241 271.2998 981.0
18.164787 382.19812 1382.0
25.949667 382.19812 1382.0
33.734547 382.19812 1382.0
41.51943 382.19812 1382.0
49.09035 380.5388 1376.0
56.841434 380.5388 1376.0
65.15582 383.85745 1388.0
72.9745 383.85745 1388.0
80.793175 383.85745 1388.0
88.22891 382.19812 1382.0
96.01379 382.19812 1382.0
103.79867 382.19812 1382.0
112.06799 383.85745 1388.0
119.88667 383.85745 1388.0
128.16548 385.24023 1393.0
136.01233 385.24023 1393.0
143.85918 385.24023 1393.0
152.35945 386.89954 1399.0
160.24008 386.89954 1399.0
168.72171 388.28232 1404.0
176.6305 388.28232 1404.0
185.32794 389.94165 1410.0
192.44812 388.28232 1404.0
199.6434 386.89954 1399.0
207.52415 386.89954 1399.0
216.17464 388.28232 1404.0
224.08345 388.28232 1404.0
232.98367 389.94165 1410.0
241.95149 391.60095 1416.0
249.92801 391.60095 1416.0
257.90442 391.60095 1416.0
265.8808 391.60095 1416.0
272.6968 389.94165 1410.0
280.6394 389.94165 1410.0
288.58212 389.94165 1410.0
297.78653 391.60095 1416.0
305.76294 391.60095 1416.0
313.73935 391.60095 1416.0
321.71573 391.60095 1416.0
331.08926 393.2603 1422.0
339.09943 393.2603 1422.0
347.10965 393.2603 1422.0
355.11987 393.2603 1422.0
363.13004 393.2603 1422.0
371.14038 393.2603 1422.0
380.75037 394.91962 1428.0
388.79437 394.91962 1428.0
396.83835 394.91962 1428.0
404.88235 394.91962 1428.0
412.92648 394.91962 1428.0
422.73923 396.57895 1434.0
430.81705 396.57895 1434.0
438.89487 396.57895 1434.0
446.97266 396.57895 1434.0
456.95453 398.23828 1440.0
465.06613 398.23828 1440.0
473.17773 398.23828 1440.0
481.2893 398.23828 1440.0
489.4009 398.23828 1440.0
495.43964 396.57895 1434.0
505.62424 398.23828 1440.0
513.73584 398.23828 1440.0
521.8474 398.23828 1440.0
529.959 398.23828 1440.0
538.0707 398.23828 1440.0
543.90656 396.57895 1434.0
551.9843 396.57895 1434.0
562.40546 398.23828 1440.0
570.5171 398.23828 1440.0
578.6288 398.23828 1440.0
589.1851 399.89758 1446.0
597.33057 399.89758 1446.0
605.47595 399.89758 1446.0
616.1675 401.55695 1452.0
624.34674 401.55695 1452.0
632.526 401.55695 1452.0
640.70514 401.55695 1452.0
648.88434 401.55695 1452.0
657.0636 401.55695 1452.0
665.2428 401.55695 1452.0
673.42206 401.55695 1452.0
681.60126 401.55695 1452.0
689.7804 401.55695 1452.0
697.95966 401.55695 1452.0
706.1389 401.55695 1452.0
717.26984 403.21625 1458.0
725.48285 403.21625 1458.0
733.6958 403.21625 1458.0
741.9088 403.21625 1458.0
753.2088 404.87558 1464.0
761.4556 404.87558 1464.0
772.85693 406.5349 1470.0
781.1376 406.5349 1470.0
793.1773 408.4708 1477.0
801.4974 408.4708 1477.0
809.81744 408.4708 1477.0
818.1374 408.4708 1477.0
826.4574 408.4708 1477.0
838.1686 410.13013 1483.0
839.10187 406.5349 1470.0
851.4176 408.4708 1477.0
859.7376 408.4708 1477.0
868.0576 408.4708 1477.0
876.3777 408.4708 1477.0
888.2917 410.13013 1483.0
-764.4055 354.6217 1309.0
-757.03174 354.6217 1309.0
-749.6581 354.6217 1309.0
-739.4491 353.26715 1304.0
-729.2964 351.9126 1299.0
-721.9791 351.9126 1299.0
-717.41254 353.26715 1304.0
-712.7897 354.6217 1309.0
-708.1105 355.97626 1314.0
-700.70856 355.97626 1314.0
-693.3068 355.97626 1314.0
-688.5149 357.3308 1319.0
-678.50305 355.97626 1314.0
-676.20856 358.68536 1324.0
-668.7503 358.68536 1324.0
-661.2922 358.68536 1324.0
-653.8339 358.68536 1324.0
-646.3758 358.68536 1324.0
-638.9176 358.68536 1324.0
-633.84406 360.03992 1329.0
-626.3578 360.03992 1329.0
-618.8714 360.03992 1329.0
-613.68524 361.39447 1334.0
-606.1707 361.39447 1334.0
-596.41235 360.03992 1329.0
-588.926 360.03992 1329.0
-583.62714 361.39447 1334.0
-578.272 362.74902 1339.0
-570.7293 362.74902 1339.0
-563.18665 362.74902 1339.0
-553.5691 361.39447 1334.0
-546.05457 361.39447 1334.0
-540.5586 362.74902 1339.0
-535.0063 364.10358 1344.0
-529.79004 365.72906 1350.0
-522.1854 365.72906 1350.0
-512.2937 364.10358 1344.0
-502.8452 362.74902 1339.0
-495.30255 362.74902 1339.0
-487.75986 362.74902 1339.0
-482.01038 364.10358 1344.0
-474.4395 364.10358 1344.0
-466.86868 364.10358 1344.0
-459.29785 364.10358 1344.0
-451.727 364.10358 1344.0
-444.15616 364.10358 1344.0
-438.5343 365.72906 1350.0
-429.01447 364.10358 1344.0
-421.44363 364.10358 1344.0
-413.87277 364.10358 1344.0
-406.30194 364.10358 1344.0
-398.73108 364.10358 1344.0
-391.16025 364.10358 1344.0
-385.30188 365.72906 1350.0
-377.6972 365.72906 1350.0
-368.44772 364.10358 1344.0
-360.87686 364.10358 1344.0
-354.8833 365.72906 1350.0
-347.2787 365.72906 1350.0
-339.674 365.72906 1350.0
-332.06937 365.72906 1350.0
-324.4647 365.72906 1350.0
-318.03363 367.08362 1355.0
-310.40088 367.08362 1355.0
-303.88522 368.43814 1360.0
-296.2243 368.43814 1360.0
-288.5633 368.43814 1360.0
-279.8696 367.08362 1355.0
-273.24136 368.43814 1360.0
-265.58035 368.43814 1360.0
-256.9712 367.08362 1355.0
-249.33835 367.08362 1355.0
-241.70557 367.08362 1355.0
-234.07277 367.08362 1355.0
-226.43993 367.08362 1355.0
-218.80716 367.08362 1355.0
-128.67805 241.11024 890.0
-123.66461 241.11024 890.0
-118.91782 241.65207 892.0
-113.382385 240.56845 888.0
-108.62433 241.11024 890.0
-103.84375 241.65207 892.0
-68.42674 259.80307 959.0
-63.418957 261.42853 965.0
-57.802803 260.6158 962.0
-52.38377 260.6158 962.0
-47.111237 261.42853 965.0
-41.80486 262.24127 968.0
18.085924 372.7727 1376.0
25.837006 372.7727 1376.0
33.58809 372.7727 1376.0
41.33917 372.7727 1376.0
49.09035 372.7727 1376.0
57.089287 374.39816 1382.0
65.15582 376.02365 1388.0
72.9745 376.02365 1388.0
80.793175 376.02365 1388.0
88.22891 374.39816 1382.0
96.01379 374.39816 1382.0
104.24931 376.02365 1388.0
112.06799 376.02365 1388.0
120.318535 377.3782 1393.0
128.16548 377.3782 1393.0
136.01233 377.3782 1393.0
143.85918 377.3782 1393.0
152.35945 379.00363 1399.0
160.24008 379.00363 1399.0
168.12085 379.00363 1399.0
176.6305 380.3582 1404.0
185.32794 381.98367 1410.0
193.27055 381.98367 1410.0
200.35692 380.3582 1404.0
208.26584 380.3582 1404.0
216.17464 380.3582 1404.0
224.08345 380.3582 1404.0
232.98367 381.98367 1410.0
241.95149 383.60913 1416.0
249.92801 383.60913 1416.0
257.90442 383.60913 1416.0
265.8808 383.60913 1416.0
272.6968 381.98367 1410.0
280.6394 381.98367 1410.0
288.58212 381.98367 1410.0
297.78653 383.60913 1416.0
305.76294 383.60913 1416.0
313.73935 383.60913 1416.0
321.71573 383.60913 1416.0
329.69226 383.60913 1416.0
339.09943 385.2346 1422.0
347.10965 385.2346 1422.0
355.11987 385.2346 1422.0
363.13004 385.2346 1422.0
371.14038 385.2346 1422.0
379.15054 385.2346 1422.0
388.79437 386.86005 1428.0
396.83835 386.86005 1428.0
404.88235 386.86005 1428.0
414.66144 388.4855 1434.0
422.73923 388.4855 1434.0
430.81705 388.4855 1434.0
440.7312 390.111 1440.0
448.84283 390.111 1440.0
456.95453 390.111 1440.0
465.06613 390.111 1440.0
473.17773 390.111 1440.0
481.2893 390.111 1440.0
489.4009 390.111 1440.0
497.5126 390.111 1440.0
505.62424 390.111 1440.0
513.73584 390.111 1440.0
521.8474 390.111 1440.0
529.959 390.111 1440.0
538.0707 390.111 1440.0
546.1823 390.111 1440.0
554.2939 390.111 1440.0
564.74884 391.73645 1446.0
572.8942 391.73645 1446.0
581.03973 391.73645 1446.0
591.6299 393.36188 1452.0
597.33057 391.73645 1446.0
605.47595 391.73645 1446.0
616.1675 393.36188 1452.0
624.34674 393.36188 1452.0
632.526 393.36188 1452.0
640.70514 393.36188 1452.0
651.5657 394.98737 1458.0
657.0636 393.36188 1452.0
665.2428 393.36188 1452.0
673.42206 393.36188 1452.0
681.60126 393.36188 1452.0
689.7804 393.36188 1452.0
697.95966 393.36188 1452.0
706.1389 393.36188 1452.0
717.26984 394.98737 1458.0
725.48285 394.98737 1458.0
733.6958 394.98737 1458.0
741.9088 394.98737 1458.0
753.2088 396.61282 1464.0
761.4556 396.61282 1464.0
772.85693 398.2383 1470.0
781.1376 398.2383 1470.0
793.1773 400.13464 1477.0
801.4974 400.13464 1477.0
809.81744 400.13464 1477.0
814.26 398.2383 1470.0
826.4574 400.13464 1477.0
834.77747 400.13464 1477.0
839.10187 398.2383 1470.0
843.92377 396.61282 1464.0
859.7376 400.13464 1477.0
863.94366 398.2383 1470.0
876.3777 400.13464 1477.0
884.69775 400.13464 1477.0
-764.4055 347.23373 1309.0
-757.03174 347.23373 1309.0
-749.6581 347.23373 1309.0
-739.4491 345.9074 1304.0
-729.2964 344.5811 1299.0
-724.7581 345.9074 1304.0
-720.1633 347.23373 1309.0
-715.5123 348.56006 1314.0
-708.1105 348.56006 1314.0
-703.3749 349.8864 1319.0
-695.94495 349.8864 1319.0
-688.5149 349.8864 1319.0
-681.0849 349.8864 1319.0
-676.20856 351.21274 1324.0
-671.27576 352.53906 1329.0
-663.78955 352.53906 1329.0
-653.8339 351.21274 1324.0
-646.3758 351.21274 1324.0
-636.50476 349.8864 1319.0
-631.45935 351.21274 1324.0
-626.3578 352.53906 1329.0
-618.8714 352.53906 1329.0
-611.3851 352.53906 1329.0
-603.8987 352.53906 1329.0
-596.41235 352.53906 1329.0
-591.14166 353.8654 1334.0
-583.62714 353.8654 1334.0
-578.272 355.19174 1339.0
-572.86053 356.51807 1344.0
-563.18665 355.19174 1339.0
-555.644 355.19174 1339.0
-548.10126 355.19174 1339.0
-540.5586 355.19174 1339.0
-535.0063 356.51807 1344.0
-529.79004 358.10965 1350.0
-522.1854 358.10965 1350.0
-512.2937 356.51807 1344.0
-502.8452 355.19174 1339.0
-495.30255 355.19174 1339.0
-487.75986 355.19174 1339.0
-482.01038 356.51807 1344.0
-474.4395 356.51807 1344.0
-466.86868 356.51807 1344.0
-457.58914 355.19174 1339.0
-451.727 356.51807 1344.0
-444.15616 356.51807 1344.0
-438.5343 358.10965 1350.0
-429.01447 356.51807 1344.0
-421.44363 356.51807 1344.0
-415.72043 358.10965 1350.0
-406.30194 356.51807 1344.0
-398.73108 356.51807 1344.0
-391.16025 356.51807 1344.0
-383.58942 356.51807 1344.0
-376.01855 356.51807 1344.0
-368.44772 356.51807 1344.0
-360.87686 356.51807 1344.0
-354.8833 358.10965 1350.0
-347.2787 358.10965 1350.0
-339.674 358.10965 1350.0
-333.29926 359.43597 1355.0
-325.6664 359.43597 1355.0
-318.03363 359.43597 1355.0
-311.54626 360.7623 1360.0
-303.88522 360.7623 1360.0
-296.2243 360.7623 1360.0
-288.5633 360.7623 1360.0
-279.8696 359.43597 1355.0
-273.24136 360.7623 1360.0
-265.58035 360.7623 1360.0
-256.9712 359.43597 1355.0
-249.33835 359.43597 1355.0
-241.70557 359.43597 1355.0
-234.07277 359.43597 1355.0
-226.43993 359.43597 1355.0
-219.61456 360.7623 1360.0
-135.7945 239.80083 904.0
-128.96724 236.61765 892.0
-123.66461 236.08711 890.0
-118.91782 236.61765 892.0
-113.382385 235.55656 888.0
-109.23458 237.41345 895.0
-68.6408 255.1863 962.0
-63.418957 255.9821 965.0
-57.983063 255.9821 965.0
-52.819393 257.30844 970.0
-47.355335 257.30844 970.0
18.164787 366.59818 1382.0
25.837006 365.0066 1376.0
33.58809 365.0066 1376.0
41.33917 365.0066 1376.0
49.09035 365.0066 1376.0
57.089287 366.59818 1382.0
64.87417 366.59818 1382.0
72.65905 366.59818 1382.0
80.443924 366.59818 1382.0
88.22891 366.59818 1382.0
96.43063 368.18976 1388.0
104.62485 369.5161 1393.0
112.471695 369.5161 1393.0
120.318535 369.5161 1393.0
128.16548 369.5161 1393.0
136.01233 369.5161 1393.0
143.85918 369.5161 1393.0
152.35945 371.10773 1399.0
160.24008 371.10773 1399.0
168.12085 371.10773 1399.0
176.6305 372.43405 1404.0
185.32794 374.02563 1410.0
193.27055 374.02563 1410.0
200.35692 372.43405 1404.0
208.26584 372.43405 1404.0
216.17464 372.43405 1404.0
224.08345 372.43405 1404.0
231.99226 372.43405 1404.0
240.92628 374.02563 1410.0
248.86899 374.02563 1410.0
257.90442 375.61725 1416.0
265.8808 375.61725 1416.0
272.6968 374.02563 1410.0
280.6394 374.02563 1410.0
288.58212 374.02563 1410.0
297.78653 375.61725 1416.0
305.76294 375.61725 1416.0
312.4099 374.02563 1410.0
320.35254 374.02563 1410.0
329.69226 375.61725 1416.0
339.09943 377.20883 1422.0
347.10965 377.20883 1422.0
355.11987 377.20883 1422.0
363.13004 377.20883 1422.0
371.14038 377.20883 1422.0
380.75037 378.8004 1428.0
388.79437 378.8004 1428.0
396.83835 378.8004 1428.0
404.88235 378.8004 1428.0
412.92648 378.8004 1428.0
422.73923 380.39203 1434.0
430.81705 380.39203 1434.0
438.89487 380.39203 1434.0
446.97266 380.39203 1434.0
455.05054 380.39203 1434.0
465.06613 381.9836 1440.0
473.17773 381.9836 1440.0
481.2893 381.9836 1440.0
489.4009 381.9836 1440.0
497.5126 381.9836 1440.0
505.62424 381.9836 1440.0
513.73584 381.9836 1440.0
524.0218 383.57523 1446.0
532.1672 383.57523 1446.0
538.0707 381.9836 1440.0
543.90656 380.39203 1434.0
551.9843 380.39203 1434.0
564.74884 383.57523 1446.0
572.8942 383.57523 1446.0
581.03973 383.57523 1446.0
589.1851 383.57523 1446.0
594.852 381.9836 1440.0
605.47595 383.57523 1446.0
613.62134 383.57523 1446.0
621.76685 383.57523 1446.0
629.9122 383.57523 1446.0
640.70514 385.16684 1452.0
648.88434 385.16684 1452.0
657.0636 385.16684 1452.0
665.2428 385.16684 1452.0
673.42206 385.16684 1452.0
681.60126 385.16684 1452.0
689.7804 385.16684 1452.0
700.84375 386.75842 1458.0
709.0569 386.75842 1458.0
717.26984 386.75842 1458.0
725.48285 386.75842 1458.0
733.6958 386.75842 1458.0
741.9088 386.75842 1458.0
753.2088 388.35004 1464.0
764.57635 389.94162 1470.0
772.85693 389.94162 1470.0
781.1376 389.94162 1470.0
789.4181 389.94162 1470.0
801.4974 391.7985 1477.0
805.9794 389.94162 1470.0
810.93646 388.35004 1464.0
822.5406 389.94162 1470.0
830.82117 389.94162 1470.0
839.10187 389.94162 1470.0
847.38245 389.94162 1470.0
855.663 389.94162 1470.0
863.94366 389.94162 1470.0
872.2242 389.94162 1470.0
884.69775 391.7985 1477.0
-764.4055 339.8458 1309.0
-757.03174 339.8458 1309.0
-752.52155 341.1439 1314.0
-742.2844 339.8458 1309.0
-732.1035 338.54767 1304.0
-727.53705 339.8458 1309.0
-725.665 342.44202 1319.0
-718.235 342.44202 1319.0
-708.1105 341.1439 1314.0
-700.70856 341.1439 1314.0
-695.94495 342.44202 1319.0
-691.1249 343.7401 1324.0
-683.6667 343.7401 1324.0
-676.20856 343.7401 1324.0
-668.7503 343.7401 1324.0
-663.78955 345.03824 1329.0
-656.3031 345.03824 1329.0
-646.3758 343.7401 1324.0
-638.9176 343.7401 1324.0
-633.84406 345.03824 1329.0
-626.3578 345.03824 1329.0
-618.8714 345.03824 1329.0
-611.3851 345.03824 1329.0
-606.1707 346.33636 1334.0
-596.41235 345.03824 1329.0
-588.926 345.03824 1329.0
-583.62714 346.33636 1334.0
-576.1127 346.33636 1334.0
-568.59814 346.33636 1334.0
-561.0836 346.33636 1334.0
-553.5691 346.33636 1334.0
-548.10126 347.63446 1339.0
-540.5586 347.63446 1339.0
-533.0159 347.63446 1339.0
-527.4354 348.9326 1344.0
-519.8646 348.9326 1344.0
-510.38788 347.63446 1339.0
-502.8452 347.63446 1339.0
-495.30255 347.63446 1339.0
-487.75986 347.63446 1339.0
-480.2172 347.63446 1339.0
-472.67447 347.63446 1339.0
-466.86868 348.9326 1344.0
-459.29785 348.9326 1344.0
-451.727 348.9326 1344.0
-444.15616 348.9326 1344.0
-438.5343 350.49033 1350.0
-430.92972 350.49033 1350.0
-421.44363 348.9326 1344.0
-415.72043 350.49033 1350.0
-408.11578 350.49033 1350.0
-398.73108 348.9326 1344.0
-391.16025 348.9326 1344.0
-383.58942 348.9326 1344.0
-376.01855 348.9326 1344.0
-368.44772 348.9326 1344.0
-362.48788 350.49033 1350.0
-356.19766 351.78842 1355.0
-348.5649 351.78842 1355.0
-340.93207 351.78842 1355.0
-333.29926 351.78842 1355.0
-325.6664 351.78842 1355.0
-318.03363 351.78842 1355.0
-310.40088 351.78842 1355.0
-303.88522 353.08655 1360.0
-296.2243 353.08655 1360.0
-287.50238 351.78842 1355.0
-279.8696 351.78842 1355.0
-273.24136 353.08655 1360.0
-265.58035 353.08655 1360.0
-256.9712 351.78842 1355.0
-249.33835 351.78842 1355.0
-241.70557 351.78842 1355.0
-234.07277 351.78842 1355.0
-227.2755 353.08655 1360.0
-219.61456 353.08655 1360.0
-211.95355 353.08655 1360.0
-204.2926 353.08655 1360.0
-196.63165 353.08655 1360.0
-123.38672 230.54472 888.0
-118.91782 231.5832 892.0
-92.84985 242.22774 933.0
-58.283493 251.83379 970.0
-52.982754 252.61264 973.0
-47.50179 252.61264 973.0
10.379907 358.79822 1382.0
18.164787 358.79822 1382.0
26.062328 360.35596 1388.0
33.734547 358.79822 1382.0
41.33917 357.2405 1376.0
49.09035 357.2405 1376.0
56.841434 357.2405 1376.0
64.592514 357.2405 1376.0
72.3436 357.2405 1376.0
80.443924 358.79822 1382.0
88.22891 358.79822 1382.0
96.43063 360.35596 1388.0
104.24931 360.35596 1388.0
112.06799 360.35596 1388.0
120.318535 361.65408 1393.0
128.16548 361.65408 1393.0
136.01233 361.65408 1393.0
143.85918 361.65408 1393.0
152.35945 363.21182 1399.0
160.24008 363.21182 1399.0
168.12085 363.21182 1399.0
176.00146 363.21182 1399.0
183.88213 363.21182 1399.0
192.44812 364.50992 1404.0
200.35692 364.50992 1404.0
208.26584 364.50992 1404.0
216.17464 364.50992 1404.0
224.08345 364.50992 1404.0
231.99226 364.50992 1404.0
239.90106 364.50992 1404.0
248.86899 366.06766 1410.0
257.90442 367.6254 1416.0
265.8808 367.6254 1416.0
271.5364 364.50992 1404.0
280.6394 366.06766 1410.0
289.81012 367.6254 1416.0
297.78653 367.6254 1416.0
305.76294 367.6254 1416.0
313.73935 367.6254 1416.0
320.35254 366.06766 1410.0
329.69226 367.6254 1416.0
337.66864 367.6254 1416.0
347.10965 369.1831 1422.0
355.11987 369.1831 1422.0
363.13004 369.1831 1422.0
372.7064 370.74084 1428.0
380.75037 370.74084 1428.0
388.79437 370.74084 1428.0
396.83835 370.74084 1428.0
406.58356 372.29858 1434.0
414.66144 372.29858 1434.0
422.73923 372.29858 1434.0
430.81705 372.29858 1434.0
438.89487 372.29858 1434.0
448.84283 373.85632 1440.0
455.05054 372.29858 1434.0
465.06613 373.85632 1440.0
473.17773 373.85632 1440.0
481.2893 373.85632 1440.0
489.4009 373.85632 1440.0
497.5126 373.85632 1440.0
505.62424 373.85632 1440.0
515.8764 375.41406 1446.0
526.19617 376.9718 1452.0
534.3753 376.9718 1452.0
540.3127 375.41406 1446.0
543.90656 372.29858 1434.0
551.9843 372.29858 1434.0
567.0922 376.9718 1452.0
572.8942 375.41406 1446.0
581.03973 375.41406 1446.0
586.7404 373.85632 1440.0
594.852 373.85632 1440.0
602.96356 373.85632 1440.0
613.62134 375.41406 1446.0
621.76685 375.41406 1446.0
632.526 376.9718 1452.0
640.70514 376.9718 1452.0
648.88434 376.9718 1452.0
657.0636 376.9718 1452.0
665.2428 376.9718 1452.0
673.42206 376.9718 1452.0
684.4178 378.52954 1458.0
689.7804 376.9718 1452.0
700.84375 378.52954 1458.0
709.0569 378.52954 1458.0
717.26984 378.52954 1458.0
725.48285 378.52954 1458.0
733.6958 378.52954 1458.0
741.9088 378.52954 1458.0
750.12195 378.52954 1458.0
758.3349 378.52954 1458.0
769.7024 380.08728 1464.0
781.1376 381.64502 1470.0
789.4181 381.64502 1470.0
801.4974 383.46234 1477.0
809.81744 383.46234 1477.0
818.1374 383.46234 1477.0
826.4574 383.46234 1477.0
834.77747 383.46234 1477.0
839.10187 381.64502 1470.0
843.92377 380.08728 1464.0
855.663 381.64502 1470.0
863.94366 381.64502 1470.0
872.2242 381.64502 1470.0
884.69775 383.46234 1477.0
-764.4055 332.45786 1309.0
-757.03174 332.45786 1309.0
-752.52155 333.72772 1314.0
-742.2844 332.45786 1309.0
-734.91064 332.45786 1309.0
-730.31604 333.72772 1314.0
-722.9141 333.72772 1314.0
-718.235 334.99762 1319.0
-708.1105 333.72772 1314.0
-700.70856 333.72772 1314.0
-695.94495 334.99762 1319.0
-691.1249 336.26752 1324.0
-683.6667 336.26752 1324.0
-673.65485 334.99762 1319.0
-668.7503 336.26752 1324.0
-663.78955 337.5374 1329.0
-656.3031 337.5374 1329.0
-646.3758 336.26752 1324.0
-638.9176 336.26752 1324.0
-633.84406 337.5374 1329.0
-626.3578 337.5374 1329.0
-618.8714 337.5374 1329.0
-613.68524 338.8073 1334.0
-606.1707 338.8073 1334.0
-596.41235 337.5374 1329.0
-588.926 337.5374 1329.0
-581.43964 337.5374 1329.0
-576.1127 338.8073 1334.0
-568.59814 338.8073 1334.0
-561.0836 338.8073 1334.0
-553.5691 338.8073 1334.0
-548.10126 340.0772 1339.0
-540.5586 340.0772 1339.0
-533.0159 340.0772 1339.0
-525.47327 340.0772 1339.0
-517.9306 340.0772 1339.0
-510.38788 340.0772 1339.0
-502.8452 340.0772 1339.0
-495.30255 340.0772 1339.0
-487.75986 340.0772 1339.0
-480.2172 340.0772 1339.0
-474.4395 341.34708 1344.0
-465.1318 340.0772 1339.0
-459.29785 341.34708 1344.0
-450.04645 340.0772 1339.0
-444.15616 341.34708 1344.0
-436.5853 341.34708 1344.0
-429.01447 341.34708 1344.0
-421.44363 341.34708 1344.0
-415.72043 342.87097 1350.0
-408.11578 342.87097 1350.0
-398.73108 341.34708 1344.0
-391.16025 341.34708 1344.0
-383.58942 341.34708 1344.0
-376.01855 341.34708 1344.0
-368.44772 341.34708 1344.0
-362.48788 342.87097 1350.0
-356.19766 344.14084 1355.0
-347.2787 342.87097 1350.0
-339.674 342.87097 1350.0
-333.29926 344.14084 1355.0
-324.4647 342.87097 1350.0
-319.20718 345.41074 1360.0
-310.40088 344.14084 1355.0
-303.88522 345.41074 1360.0
-295.13522 344.14084 1355.0
-287.50238 344.14084 1355.0
-280.90234 345.41074 1360.0
-273.24136 345.41074 1360.0
-265.58035 345.41074 1360.0
-256.9712 344.14084 1355.0
-249.33835 344.14084 1355.0
-241.70557 344.14084 1355.0
-234.07277 344.14084 1355.0
-227.2755 345.41074 1360.0
-219.61456 345.41074 1360.0
-211.95355 345.41074 1360.0
-204.2926 345.41074 1360.0
-196.63165 345.41074 1360.0
-188.97064 345.41074 1360.0
-182.10959 346.9346 1366.0
-103.13959 236.45398 931.0
-97.895226 236.45398 931.0
-92.84985 236.96193 933.0
-58.463753 247.12106 973.0
-53.146114 247.88301 976.0
2.583661 349.4744 1376.0
10.334842 349.4744 1376.0
18.164787 350.99826 1382.0
26.062328 352.52216 1388.0
33.88101 352.52216 1388.0
41.51943 350.99826 1382.0
49.09035 349.4744 1376.0
56.841434 349.4744 1376.0
64.592514 349.4744 1376.0
72.3436 349.4744 1376.0
80.793175 352.52216 1388.0
88.22891 350.99826 1382.0
96.43063 352.52216 1388.0
104.24931 352.52216 1388.0
112.06799 352.52216 1388.0
120.318535 353.79202 1393.0
128.16548 353.79202 1393.0
136.01233 353.79202 1393.0
143.85918 353.79202 1393.0
152.35945 355.31592 1399.0
160.24008 355.31592 1399.0
168.12085 355.31592 1399.0
176.00146 355.31592 1399.0
183.88213 355.31592 1399.0
192.44812 356.5858 1404.0
200.35692 356.5858 1404.0
208.26584 356.5858 1404.0
217.09846 358.10968 1410.0
225.04108 358.10968 1410.0
232.98367 358.10968 1410.0
239.90106 356.5858 1404.0
248.86899 358.10968 1410.0
257.90442 359.63354 1416.0
265.8808 359.63354 1416.0
271.5364 356.5858 1404.0
280.6394 358.10968 1410.0
288.58212 358.10968 1410.0
297.78653 359.63354 1416.0
305.76294 359.63354 1416.0
313.73935 359.63354 1416.0
320.35254 358.10968 1410.0
329.69226 359.63354 1416.0
337.66864 359.63354 1416.0
347.10965 361.1574 1422.0
355.11987 361.1574 1422.0
363.13004 361.1574 1422.0
372.7064 362.68127 1428.0
380.75037 362.68127 1428.0
390.42795 364.20514 1434.0
396.83835 362.68127 1428.0
404.88235 362.68127 1428.0
412.92648 362.68127 1428.0
422.73923 364.20514 1434.0
430.81705 364.20514 1434.0
438.89487 364.20514 1434.0
446.97266 364.20514 1434.0
455.05054 364.20514 1434.0
465.06613 365.72903 1440.0
473.17773 365.72903 1440.0
481.2893 365.72903 1440.0
489.4009 365.72903 1440.0
497.5126 365.72903 1440.0
505.62424 365.72903 1440.0
515.8764 367.2529 1446.0
524.0218 367.2529 1446.0
532.1672 367.2529 1446.0
540.3127 367.2529 1446.0
543.90656 364.20514 1434.0
554.2939 365.72903 1440.0
562.40546 365.72903 1440.0
572.8942 367.2529 1446.0
578.6288 365.72903 1440.0
589.1851 367.2529 1446.0
597.33057 367.2529 1446.0
607.9883 368.77676 1452.0
616.1675 368.77676 1452.0
624.34674 368.77676 1452.0
632.526 368.77676 1452.0
640.70514 368.77676 1452.0
648.88434 368.77676 1452.0
654.3484 367.2529 1446.0
665.2428 368.77676 1452.0
673.42206 368.77676 1452.0
681.60126 368.77676 1452.0
689.7804 368.77676 1452.0
697.95966 368.77676 1452.0
706.1389 368.77676 1452.0
717.26984 370.30063 1458.0
725.48285 370.30063 1458.0
733.6958 370.30063 1458.0
741.9088 370.30063 1458.0
750.12195 370.30063 1458.0
758.3349 370.30063 1458.0
766.5479 370.30063 1458.0
777.9492 371.8245 1464.0
786.19604 371.8245 1464.0
801.4974 375.12622 1477.0
809.81744 375.12622 1477.0
818.1374 375.12622 1477.0
826.4574 375.12622 1477.0
834.77747 375.12622 1477.0
839.10187 373.3484 1470.0
847.38245 373.3484 1470.0
855.663 373.3484 1470.0
868.0576 375.12622 1477.0
876.3777 375.12622 1477.0
884.69775 375.12622 1477.0
-767.3253 326.31155 1314.0
-757.03174 325.0699 1309.0
-752.52155 326.31155 1314.0
-742.2844 325.0699 1309.0
-734.91064 325.0699 1309.0
-730.31604 326.31155 1314.0
-722.9141 326.31155 1314.0
-715.5123 326.31155 1314.0
-710.80493 327.55325 1319.0
-700.70856 326.31155 1314.0
-695.94495 327.55325 1319.0
-688.5149 327.55325 1319.0
-683.6667 328.79492 1324.0
-673.65485 327.55325 1319.0
-668.7503 328.79492 1324.0
-661.2922 328.79492 1324.0
-653.8339 328.79492 1324.0
-646.3758 328.79492 1324.0
-638.9176 328.79492 1324.0
-633.84406 330.0366 1329.0
-626.3578 330.0366 1329.0
-618.8714 330.0366 1329.0
-613.68524 331.27826 1334.0
-606.1707 331.27826 1334.0
-598.6562 331.27826 1334.0
-591.14166 331.27826 1334.0
-581.43964 330.0366 1329.0
-576.1127 331.27826 1334.0
-570.7293 332.51993 1339.0
-561.0836 331.27826 1334.0
-553.5691 331.27826 1334.0
-546.05457 331.27826 1334.0
-540.5586 332.51993 1339.0
-533.0159 332.51993 1339.0
-525.47327 332.51993 1339.0
-517.9306 332.51993 1339.0
-510.38788 332.51993 1339.0
-502.8452 332.51993 1339.0
-495.30255 332.51993 1339.0
-487.75986 332.51993 1339.0
-480.2172 332.51993 1339.0
-474.4395 333.7616 1344.0
-466.86868 333.7616 1344.0
-459.29785 333.7616 1344.0
-451.727 333.7616 1344.0
-444.15616 333.7616 1344.0
-436.5853 333.7616 1344.0
-429.01447 333.7616 1344.0
-421.44363 333.7616 1344.0
-413.87277 333.7616 1344.0
-406.30194 333.7616 1344.0
-398.73108 333.7616 1344.0
-392.9065 335.25162 1350.0
-385.30188 335.25162 1350.0
-377.6972 335.25162 1350.0
-368.44772 333.7616 1344.0
-362.48788 335.25162 1350.0
-356.19766 336.4933 1355.0
-347.2787 335.25162 1350.0
-339.674 335.25162 1350.0
-332.06937 335.25162 1350.0
-324.4647 335.25162 1350.0
-318.03363 336.4933 1355.0
-310.40088 336.4933 1355.0
-302.768 336.4933 1355.0
-295.13522 336.4933 1355.0
-287.50238 336.4933 1355.0
-279.8696 336.4933 1355.0
-272.23682 336.4933 1355.0
-265.58035 337.73495 1360.0
-256.9712 336.4933 1355.0
-249.33835 336.4933 1355.0
-241.70557 336.4933 1355.0
-234.07277 336.4933 1355.0
-227.2755 337.73495 1360.0
-219.61456 337.73495 1360.0
-211.95355 337.73495 1360.0
-204.2926 337.73495 1360.0
-196.63165 337.73495 1360.0
-188.2759 336.4933 1355.0
-181.30971 337.73495 1360.0
-173.6487 337.73495 1360.0
-166.72003 339.22495 1366.0
-158.32678 337.73495 1360.0
-103.13959 231.19943 931.0
-97.895226 231.19943 931.0
-92.84985 231.69612 933.0
-5.167421 341.70828 1376.0
2.5742726 340.4666 1371.0
10.334842 341.70828 1376.0
18.164787 343.19833 1382.0
25.949667 343.19833 1382.0
33.88101 344.68832 1388.0
41.699684 344.68832 1388.0
49.09035 341.70828 1376.0
56.841434 341.70828 1376.0
64.592514 341.70828 1376.0
72.65905 343.19833 1382.0
80.793175 344.68832 1388.0
88.61195 344.68832 1388.0
96.43063 344.68832 1388.0
103.79867 343.19833 1382.0
112.06799 344.68832 1388.0
119.88667 344.68832 1388.0
127.70545 344.68832 1388.0
136.01233 345.93 1393.0
143.85918 345.93 1393.0
152.35945 347.42 1399.0
160.24008 347.42 1399.0
168.12085 347.42 1399.0
176.00146 347.42 1399.0
184.5393 348.66168 1404.0
192.44812 348.66168 1404.0
200.35692 348.66168 1404.0
207.52415 347.42 1399.0
216.17464 348.66168 1404.0
225.99869 351.6417 1416.0
232.98367 350.15167 1410.0
239.90106 348.66168 1404.0
248.86899 350.15167 1410.0
257.90442 351.6417 1416.0
265.8808 351.6417 1416.0
271.5364 348.66168 1404.0
280.6394 350.15167 1410.0
288.58212 350.15167 1410.0
296.52472 350.15167 1410.0
304.46732 350.15167 1410.0
312.4099 350.15167 1410.0
320.35254 350.15167 1410.0
329.69226 351.6417 1416.0
337.66864 351.6417 1416.0
347.10965 353.1317 1422.0
355.11987 353.1317 1422.0
363.13004 353.1317 1422.0
372.7064 354.6217 1428.0
380.75037 354.6217 1428.0
388.79437 354.6217 1428.0
396.83835 354.6217 1428.0
404.88235 354.6217 1428.0
412.92648 354.6217 1428.0
420.97046 354.6217 1428.0
430.81705 356.11172 1434.0
438.89487 356.11172 1434.0
448.84283 357.6017 1440.0
456.95453 357.6017 1440.0
465.06613 357.6017 1440.0
473.17773 357.6017 1440.0
481.2893 357.6017 1440.0
489.4009 357.6017 1440.0
497.5126 357.6017 1440.0
505.62424 357.6017 1440.0
513.73584 357.6017 1440.0
521.8474 357.6017 1440.0
532.1672 359.0917 1446.0
540.3127 359.0917 1446.0
546.1823 357.6017 1440.0
556.60345 359.0917 1446.0
562.40546 357.6017 1440.0
570.5171 357.6017 1440.0
581.03973 359.0917 1446.0
589.1851 359.0917 1446.0
597.33057 359.0917 1446.0
607.9883 360.58176 1452.0
616.1675 360.58176 1452.0
624.34674 360.58176 1452.0
632.526 360.58176 1452.0
640.70514 360.58176 1452.0
646.20306 359.0917 1446.0
657.0636 360.58176 1452.0
665.2428 360.58176 1452.0
676.2048 362.07175 1458.0
681.60126 360.58176 1452.0
689.7804 360.58176 1452.0
697.95966 360.58176 1452.0
706.1389 360.58176 1452.0
717.26984 362.07175 1458.0
725.48285 362.07175 1458.0
733.6958 362.07175 1458.0
741.9088 362.07175 1458.0
750.12195 362.07175 1458.0
758.3349 362.07175 1458.0
766.5479 362.07175 1458.0
777.9492 363.56174 1464.0
786.19604 363.56174 1464.0
794.4429 363.56174 1464.0
805.9794 365.05176 1470.0
818.1374 366.7901 1477.0
826.4574 366.7901 1477.0
834.77747 366.7901 1477.0
839.10187 365.05176 1470.0
847.38245 365.05176 1470.0
855.663 365.05176 1470.0
868.0576 366.7901 1477.0
876.3777 366.7901 1477.0
884.69775 366.7901 1477.0
-767.3253 318.89542 1314.0
-757.03174 317.68195 1309.0
-752.52155 318.89542 1314.0
-742.2844 317.68195 1309.0
-734.91064 317.68195 1309.0
-730.31604 318.89542 1314.0
-720.1633 317.68195 1309.0
-715.5123 318.89542 1314.0
-708.1105 318.89542 1314.0
-700.70856 318.89542 1314.0
-695.94495 320.10886 1319.0
-688.5149 320.10886 1319.0
-683.6667 321.3223 1324.0
-676.20856 321.3223 1324.0
-668.7503 321.3223 1324.0
-661.2922 321.3223 1324.0
-653.8339 321.3223 1324.0
-646.3758 321.3223 1324.0
-638.9176 321.3223 1324.0
-633.84406 322.53577 1329.0
-626.3578 322.53577 1329.0
-618.8714 322.53577 1329.0
-611.3851 322.53577 1329.0
-601.6267 321.3223 1324.0
-596.41235 322.53577 1329.0
-591.14166 323.7492 1334.0
-581.43964 322.53577 1329.0
-576.1127 323.7492 1334.0
-570.7293 324.96268 1339.0
-561.0836 323.7492 1334.0
-551.49426 322.53577 1329.0
-546.05457 323.7492 1334.0
-542.57715 326.17612 1344.0
-535.0063 326.17612 1344.0
-527.4354 326.17612 1344.0
-519.8646 326.17612 1344.0
-510.38788 324.96268 1339.0
-502.8452 324.96268 1339.0
-495.30255 324.96268 1339.0
-487.75986 324.96268 1339.0
-480.2172 324.96268 1339.0
-474.4395 326.17612 1344.0
-465.1318 324.96268 1339.0
-459.29785 326.17612 1344.0
-451.727 326.17612 1344.0
-444.15616 326.17612 1344.0
-436.5853 326.17612 1344.0
-429.01447 326.17612 1344.0
-421.44363 326.17612 1344.0
-413.87277 326.17612 1344.0
-406.30194 326.17612 1344.0
-398.73108 326.17612 1344.0
-392.9065 327.63226 1350.0
-385.30188 327.63226 1350.0
-379.0961 328.84573 1355.0
-368.44772 326.17612 1344.0
-362.48788 327.63226 1350.0
-356.19766 328.84573 1355.0
-348.5649 328.84573 1355.0
-340.93207 328.84573 1355.0
-333.29926 328.84573 1355.0
-324.4647 327.63226 1350.0
-316.86008 327.63226 1350.0
-310.40088 328.84573 1355.0
-301.6508 327.63226 1350.0
-294.04617 327.63226 1350.0
-287.50238 328.84573 1355.0
-280.90234 330.05917 1360.0
-273.24136 330.05917 1360.0
-265.58035 330.05917 1360.0
-256.02295 327.63226 1350.0
-249.33835 328.84573 1355.0
-241.70557 328.84573 1355.0
-234.07277 328.84573 1355.0
-226.43993 328.84573 1355.0
-218.80716 328.84573 1355.0
-211.95355 330.05917 1360.0
-204.2926 330.05917 1360.0
-196.63165 330.05917 1360.0
-188.97064 330.05917 1360.0
-181.30971 330.05917 1360.0
-173.01028 328.84573 1355.0
-165.98773 330.05917 1360.0
-158.32678 330.05917 1360.0
-102.80724 225.21684 928.0
-97.895226 225.94493 931.0
-92.84985 226.4303 933.0
-20.759714 335.39835 1382.0
-12.918503 333.94223 1376.0
-5.1899533 335.39835 1382.0
2.583661 333.94223 1376.0
10.334842 333.94223 1376.0
18.164787 335.39835 1382.0
25.837006 333.94223 1376.0
33.734547 335.39835 1382.0
41.699684 336.85452 1388.0
49.304405 335.39835 1382.0
56.841434 333.94223 1376.0
64.87417 335.39835 1382.0
72.65905 335.39835 1382.0
80.443924 335.39835 1382.0
88.22891 335.39835 1382.0
96.01379 335.39835 1382.0
104.24931 336.85452 1388.0
111.58355 335.39835 1382.0
119.36842 335.39835 1382.0
127.70545 336.85452 1388.0
135.52412 336.85452 1388.0
143.3428 336.85452 1388.0
151.70601 338.06796 1393.0
160.24008 339.5241 1399.0
168.12085 339.5241 1399.0
176.00146 339.5241 1399.0
183.88213 339.5241 1399.0
192.44812 340.73755 1404.0
200.35692 340.73755 1404.0
208.26584 340.73755 1404.0
216.17464 340.73755 1404.0
225.99869 343.64984 1416.0
232.98367 342.19373 1410.0
239.90106 340.73755 1404.0
247.80998 340.73755 1404.0
256.81158 342.19373 1410.0
264.7542 342.19373 1410.0
272.6968 342.19373 1410.0
280.6394 342.19373 1410.0
288.58212 342.19373 1410.0
296.52472 342.19373 1410.0
304.46732 342.19373 1410.0
312.4099 342.19373 1410.0
321.71573 343.64984 1416.0
329.69226 343.64984 1416.0
337.66864 343.64984 1416.0
347.10965 345.106 1422.0
355.11987 345.106 1422.0
364.66223 346.56213 1428.0
374.27234 348.01828 1434.0
380.75037 346.56213 1428.0
388.79437 346.56213 1428.0
396.83835 346.56213 1428.0
404.88235 346.56213 1428.0
412.92648 346.56213 1428.0
420.97046 346.56213 1428.0
430.81705 348.01828 1434.0
438.89487 348.01828 1434.0
446.97266 348.01828 1434.0
456.95453 349.47443 1440.0
465.06613 349.47443 1440.0
473.17773 349.47443 1440.0
481.2893 349.47443 1440.0
489.4009 349.47443 1440.0
497.5126 349.47443 1440.0
505.62424 349.47443 1440.0
513.73584 349.47443 1440.0
521.8474 349.47443 1440.0
532.1672 350.93057 1446.0
542.5546 352.3867 1452.0
548.45807 350.93057 1446.0
556.60345 350.93057 1446.0
562.40546 349.47443 1440.0
570.5171 349.47443 1440.0
576.21783 348.01828 1434.0
589.1851 350.93057 1446.0
597.33057 350.93057 1446.0
605.47595 350.93057 1446.0
616.1675 352.3867 1452.0
624.34674 352.3867 1452.0
632.526 352.3867 1452.0
640.70514 352.3867 1452.0
646.20306 350.93057 1446.0
657.0636 352.3867 1452.0
665.2428 352.3867 1452.0
673.42206 352.3867 1452.0
684.4178 353.84286 1458.0
692.63074 353.84286 1458.0
700.84375 353.84286 1458.0
709.0569 353.84286 1458.0
717.26984 353.84286 1458.0
725.48285 353.84286 1458.0
733.6958 353.84286 1458.0
741.9088 353.84286 1458.0
750.12195 353.84286 1458.0
761.4556 355.29898 1464.0
769.7024 355.29898 1464.0
777.9492 355.29898 1464.0
782.9739 353.84286 1458.0
794.4429 355.29898 1464.0
805.9794 356.75516 1470.0
814.26 356.75516 1470.0
822.5406 356.75516 1470.0
834.77747 358.45395 1477.0
839.10187 356.75516 1470.0
851.4176 358.45395 1477.0
855.663 356.75516 1470.0
868.0576 358.45395 1477.0
876.3777 358.45395 1477.0
880.50494 356.75516 1470.0
-764.4055 310.29398 1309.0
-757.03174 310.29398 1309.0
-752.52155 311.47922 1314.0
-739.4491 309.10873 1304.0
-734.91064 310.29398 1309.0
-730.31604 311.47922 1314.0
-722.9141 311.47922 1314.0
-712.7897 310.29398 1309.0
-705.416 310.29398 1309.0
-698.04224 310.29398 1309.0
-690.66864 310.29398 1309.0
-688.5149 312.66443 1319.0
-681.0849 312.66443 1319.0
-673.65485 312.66443 1319.0
-668.7503 313.84967 1324.0
-661.2922 313.84967 1324.0
-653.8339 313.84967 1324.0
-646.3758 313.84967 1324.0
-638.9176 313.84967 1324.0
-631.45935 313.84967 1324.0
-626.3578 315.0349 1329.0
-618.8714 315.0349 1329.0
-609.0849 313.84967 1324.0
-601.6267 313.84967 1324.0
-598.6562 316.22015 1334.0
-591.14166 316.22015 1334.0
-583.62714 316.22015 1334.0
-576.1127 316.22015 1334.0
-568.59814 316.22015 1334.0
-558.9806 315.0349 1329.0
-553.5691 316.22015 1334.0
-546.05457 316.22015 1334.0
-540.5586 317.40536 1339.0
-535.0063 318.5906 1344.0
-527.4354 318.5906 1344.0
-519.8646 318.5906 1344.0
-512.2937 318.5906 1344.0
-504.7229 318.5906 1344.0
-497.15207 318.5906 1344.0
-489.5812 318.5906 1344.0
-480.2172 317.40536 1339.0
-472.67447 317.40536 1339.0
-465.1318 317.40536 1339.0
-457.58914 317.40536 1339.0
-451.727 318.5906 1344.0
-444.15616 318.5906 1344.0
-436.5853 318.5906 1344.0
-429.01447 318.5906 1344.0
-419.87576 317.40536 1339.0
-413.87277 318.5906 1344.0
-406.30194 318.5906 1344.0
-398.73108 318.5906 1344.0
-392.9065 320.01288 1350.0
-385.30188 320.01288 1350.0
-377.6972 320.01288 1350.0
-368.44772 318.5906 1344.0
-362.48788 320.01288 1350.0
-354.8833 320.01288 1350.0
-347.2787 320.01288 1350.0
-340.93207 321.1981 1355.0
-333.29926 321.1981 1355.0
-324.4647 320.01288 1350.0
-316.86008 320.01288 1350.0
-310.40088 321.1981 1355.0
-301.6508 320.01288 1350.0
-295.13522 321.1981 1355.0
-287.50238 321.1981 1355.0
-280.90234 322.38333 1360.0
-273.24136 322.38333 1360.0
-265.58035 322.38333 1360.0
-256.02295 320.01288 1350.0
-248.41829 320.01288 1350.0
-240.81366 320.01288 1350.0
-234.07277 321.1981 1355.0
-226.43993 321.1981 1355.0
-218.80716 321.1981 1355.0
-211.17432 321.1981 1355.0
-204.2926 322.38333 1360.0
-196.63165 322.38333 1360.0
-188.97064 322.38333 1360.0
-181.30971 322.38333 1360.0
-173.01028 321.1981 1355.0
-165.98773 322.38333 1360.0
-158.32678 322.38333 1360.0
-151.8844 324.99084 1371.0
-98.10552 221.16446 933.0
-92.84985 221.16446 933.0
-88.15752 222.58673 939.0
-20.669584 326.1761 1376.0
-12.918503 326.1761 1376.0
-5.1899533 327.5984 1382.0
2.583661 326.1761 1376.0
10.379907 327.5984 1382.0
18.164787 327.5984 1382.0
25.837006 326.1761 1376.0
33.58809 326.1761 1376.0
41.33917 326.1761 1376.0
49.304405 327.5984 1382.0
57.089287 327.5984 1382.0
64.87417 327.5984 1382.0
72.3436 326.1761 1376.0
80.09467 326.1761 1376.0
88.22891 327.5984 1382.0
96.01379 327.5984 1382.0
104.24931 329.02063 1388.0
112.06799 329.02063 1388.0
119.88667 329.02063 1388.0
127.70545 329.02063 1388.0
135.52412 329.02063 1388.0
143.3428 329.02063 1388.0
151.70601 330.20587 1393.0
159.55286 330.20587 1393.0
168.12085 331.62817 1399.0
176.00146 331.62817 1399.0
183.88213 331.62817 1399.0
191.76277 331.62817 1399.0
199.6434 331.62817 1399.0
208.26584 332.81342 1404.0
215.40479 331.62817 1399.0
224.08345 332.81342 1404.0
231.99226 332.81342 1404.0
239.90106 332.81342 1404.0
247.80998 332.81342 1404.0
257.90442 335.65796 1416.0
265.8808 335.65796 1416.0
272.6968 334.23566 1410.0
280.6394 334.23566 1410.0
288.58212 334.23566 1410.0
296.52472 334.23566 1410.0
304.46732 334.23566 1410.0
313.73935 335.65796 1416.0
321.71573 335.65796 1416.0
329.69226 335.65796 1416.0
339.09943 337.08023 1422.0
347.10965 337.08023 1422.0
355.11987 337.08023 1422.0
364.66223 338.5025 1428.0
372.7064 338.5025 1428.0
379.15054 337.08023 1422.0
387.16077 337.08023 1422.0
395.171 337.08023 1422.0
406.58356 339.9248 1434.0
414.66144 339.9248 1434.0
422.73923 339.9248 1434.0
430.81705 339.9248 1434.0
438.89487 339.9248 1434.0
446.97266 339.9248 1434.0
456.95453 341.34708 1440.0
465.06613 341.34708 1440.0
473.17773 341.34708 1440.0
481.2893 341.34708 1440.0
489.4009 341.34708 1440.0
499.58557 342.76935 1446.0
507.731 342.76935 1446.0
515.8764 342.76935 1446.0
524.0218 342.76935 1446.0
532.1672 342.76935 1446.0
542.5546 344.19165 1452.0
548.45807 342.76935 1446.0
558.913 344.19165 1452.0
564.74884 342.76935 1446.0
570.5171 341.34708 1440.0
578.6288 341.34708 1440.0
589.1851 342.76935 1446.0
599.8091 344.19165 1452.0
607.9883 344.19165 1452.0
616.1675 344.19165 1452.0
624.34674 344.19165 1452.0
632.526 344.19165 1452.0
640.70514 344.19165 1452.0
648.88434 344.19165 1452.0
657.0636 344.19165 1452.0
665.2428 344.19165 1452.0
673.42206 344.19165 1452.0
684.4178 345.6139 1458.0
692.63074 345.6139 1458.0
697.95966 344.19165 1452.0
709.0569 345.6139 1458.0
717.26984 345.6139 1458.0
725.48285 345.6139 1458.0
733.6958 345.6139 1458.0
741.9088 345.6139 1458.0
750.12195 345.6139 1458.0
761.4556 347.0362 1464.0
769.7024 347.0362 1464.0
781.1376 348.45847 1470.0
782.9739 345.6139 1458.0
794.4429 347.0362 1464.0
802.6897 347.0362 1464.0
814.26 348.45847 1470.0
822.5406 348.45847 1470.0
830.82117 348.45847 1470.0
835.67694 347.0362 1464.0
847.38245 348.45847 1470.0
855.663 348.45847 1470.0
868.0576 350.1178 1477.0
876.3777 350.1178 1477.0
884.69775 350.1178 1477.0
-764.4055 302.90604 1309.0
-759.9234 304.06305 1314.0
-752.52155 304.06305 1314.0
-739.4491 301.74902 1304.0
-734.91064 302.90604 1309.0
-730.31604 304.06305 1314.0
-725.665 305.22006 1319.0
-718.235 305.22006 1319.0
-710.80493 305.22006 1319.0
-703.3749 305.22006 1319.0
-693.3068 304.06305 1314.0
-688.5149 305.22006 1319.0
-681.0849 305.22006 1319.0
-673.65485 305.22006 1319.0
-668.7503 306.37708 1324.0
-661.2922 306.37708 1324.0
-651.3648 305.22006 1319.0
-646.3758 306.37708 1324.0
-638.9176 306.37708 1324.0
-633.84406 307.5341 1329.0
-624.0013 306.37708 1324.0
-618.8714 307.5341 1329.0
-611.3851 307.5341 1329.0
-608.44275 309.8481 1339.0
-598.6562 308.6911 1334.0
-591.14166 308.6911 1334.0
-583.62714 308.6911 1334.0
-576.1127 308.6911 1334.0
-570.7293 309.8481 1339.0
-561.0836 308.6911 1334.0
-555.644 309.8481 1339.0
-548.10126 309.8481 1339.0
-538.5401 308.6911 1334.0
-533.0159 309.8481 1339.0
-525.47327 309.8481 1339.0
-519.8646 311.00513 1344.0
-512.2937 311.00513 1344.0
-502.8452 309.8481 1339.0
-495.30255 309.8481 1339.0
-487.75986 309.8481 1339.0
-480.2172 309.8481 1339.0
-472.67447 309.8481 1339.0
-465.1318 309.8481 1339.0
-457.58914 309.8481 1339.0
-451.727 311.00513 1344.0
-444.15616 311.00513 1344.0
-436.5853 311.00513 1344.0
-429.01447 311.00513 1344.0
-419.87576 309.8481 1339.0
-413.87277 311.00513 1344.0
-406.30194 311.00513 1344.0
-398.73108 311.00513 1344.0
-391.16025 311.00513 1344.0
-385.30188 312.39355 1350.0
-377.6972 312.39355 1350.0
-370.09256 312.39355 1350.0
-363.83044 313.55057 1355.0
-354.8833 312.39355 1350.0
-347.2787 312.39355 1350.0
-338.16434 311.00513 1344.0
-332.06937 312.39355 1350.0
-325.6664 313.55057 1355.0
-318.03363 313.55057 1355.0
-310.40088 313.55057 1355.0
-302.768 313.55057 1355.0
-296.2243 314.70758 1360.0
-288.5633 314.70758 1360.0
-280.90234 314.70758 1360.0
-273.24136 314.70758 1360.0
-265.58035 314.70758 1360.0
-256.9712 313.55057 1355.0
-249.33835 313.55057 1355.0
-241.70557 313.55057 1355.0
-234.07277 313.55057 1355.0
-226.43993 313.55057 1355.0
-218.80716 313.55057 1355.0
-211.17432 313.55057 1355.0
-203.54153 313.55057 1355.0
-196.63165 314.70758 1360.0
-188.97064 314.70758 1360.0
-181.30971 314.70758 1360.0
-173.6487 314.70758 1360.0
-165.98773 314.70758 1360.0
-158.32678 314.70758 1360.0
-150.66579 314.70758 1360.0
-98.10552 215.89864 933.0
-92.84985 215.89864 933.0
-88.15752 217.28706 939.0
-66.68803 316.09598 1366.0
-43.92293 318.41 1376.0
-36.1718 318.41 1376.0
-28.420717 318.41 1376.0
-20.669584 318.41 1376.0
-12.918503 318.41 1376.0
-5.1899533 319.7984 1382.0
2.583661 318.41 1376.0
10.334842 318.41 1376.0
18.164787 319.7984 1382.0
25.949667 319.7984 1382.0
33.58809 318.41 1376.0
41.33917 318.41 1376.0
49.09035 318.41 1376.0
56.841434 318.41 1376.0
64.592514 318.41 1376.0
72.3436 318.41 1376.0
80.09467 318.41 1376.0
88.22891 319.7984 1382.0
96.01379 319.7984 1382.0
104.24931 321.18683 1388.0
112.06799 321.18683 1388.0
119.88667 321.18683 1388.0
128.16548 322.34384 1393.0
135.52412 321.18683 1388.0
143.85918 322.34384 1393.0
151.70601 322.34384 1393.0
159.55286 322.34384 1393.0
167.3998 322.34384 1393.0
176.00146 323.73227 1399.0
183.88213 323.73227 1399.0
191.76277 323.73227 1399.0
199.6434 323.73227 1399.0
209.15585 326.2777 1410.0
216.17464 324.88928 1404.0
223.28543 323.73227 1399.0
231.99226 324.88928 1404.0
239.90106 324.88928 1404.0
247.80998 324.88928 1404.0
256.81158 326.2777 1410.0
265.8808 327.6661 1416.0
272.6968 326.2777 1410.0
280.6394 326.2777 1410.0
288.58212 326.2777 1410.0
296.52472 326.2777 1410.0
304.46732 326.2777 1410.0
313.73935 327.6661 1416.0
320.35254 326.2777 1410.0
329.69226 327.6661 1416.0
339.09943 329.0545 1422.0
347.10965 329.0545 1422.0
353.62146 327.6661 1416.0
361.59787 327.6661 1416.0
371.14038 329.0545 1422.0
379.15054 329.0545 1422.0
387.16077 329.0545 1422.0
396.83835 330.44293 1428.0
406.58356 331.83136 1434.0
414.66144 331.83136 1434.0
422.73923 331.83136 1434.0
430.81705 331.83136 1434.0
438.89487 331.83136 1434.0
446.97266 331.83136 1434.0
455.05054 331.83136 1434.0
465.06613 333.2198 1440.0
473.17773 333.2198 1440.0
481.2893 333.2198 1440.0
489.4009 333.2198 1440.0
497.5126 333.2198 1440.0
505.62424 333.2198 1440.0
515.8764 334.6082 1446.0
521.8474 333.2198 1440.0
532.1672 334.6082 1446.0
542.5546 335.99658 1452.0
546.1823 333.2198 1440.0
558.913 335.99658 1452.0
564.74884 334.6082 1446.0
572.8942 334.6082 1446.0
581.03973 334.6082 1446.0
591.6299 335.99658 1452.0
599.8091 335.99658 1452.0
607.9883 335.99658 1452.0
616.1675 335.99658 1452.0
621.76685 334.6082 1446.0
632.526 335.99658 1452.0
640.70514 335.99658 1452.0
648.88434 335.99658 1452.0
659.7787 337.385 1458.0
665.2428 335.99658 1452.0
673.42206 335.99658 1452.0
684.4178 337.385 1458.0
692.63074 337.385 1458.0
700.84375 337.385 1458.0
709.0569 337.385 1458.0
714.3181 335.99658 1452.0
725.48285 337.385 1458.0
733.6958 337.385 1458.0
741.9088 337.385 1458.0
753.2088 338.77344 1464.0
764.57635 340.16187 1470.0
772.85693 340.16187 1470.0
781.1376 340.16187 1470.0
786.19604 338.77344 1464.0
797.69885 340.16187 1470.0
802.6897 338.77344 1464.0
814.26 340.16187 1470.0
819.1833 338.77344 1464.0
827.43005 338.77344 1464.0
832.2521 337.385 1458.0
843.92377 338.77344 1464.0
852.17053 338.77344 1464.0
863.94366 340.16187 1470.0
876.3777 341.78165 1477.0
884.69775 341.78165 1477.0
-764.4055 295.5181 1309.0
-757.03174 295.5181 1309.0
-749.6581 295.5181 1309.0
-739.4491 294.38928 1304.0
-734.91064 295.5181 1309.0
-730.31604 296.64688 1314.0
-722.9141 296.64688 1314.0
-718.235 297.77567 1319.0
-710.80493 297.77567 1319.0
-700.70856 296.64688 1314.0
-695.94495 297.77567 1319.0
-688.5149 297.77567 1319.0
-681.0849 297.77567 1319.0
-676.20856 298.90445 1324.0
-668.7503 298.90445 1324.0
-658.79486 297.77567 1319.0
-651.3648 297.77567 1319.0
-646.3758 298.90445 1324.0
-641.33044 300.03326 1329.0
-633.84406 300.03326 1329.0
-626.3578 300.03326 1329.0
-618.8714 300.03326 1329.0
-613.68524 301.16205 1334.0
-606.1707 301.16205 1334.0
-600.9 302.29083 1339.0
-591.14166 301.16205 1334.0
-581.43964 300.03326 1329.0
-573.9533 300.03326 1329.0
-570.7293 302.29083 1339.0
-563.18665 302.29083 1339.0
-555.644 302.29083 1339.0
-548.10126 302.29083 1339.0
-538.5401 301.16205 1334.0
-531.0256 301.16205 1334.0
-527.4354 303.41965 1344.0
-519.8646 303.41965 1344.0
-512.2937 303.41965 1344.0
-504.7229 303.41965 1344.0
-495.30255 302.29083 1339.0
