ply
format ascii 1.0
element vertex 1683
property float x
property float y
property float z
end_header
-502.76447 -44.666378 1319.0
-495.33444 -44.666378 1319.0
-487.90445 -44.666378 1319.0
-480.47443 -44.666378 1319.0
-473.0444 -44.666378 1319.0
-467.3794 -44.835697 1324.0
-458.18436 -44.666378 1319.0
-450.75436 -44.666378 1319.0
-443.32434 -44.666378 1319.0
-435.89432 -44.666378 1319.0
-428.4643 -44.666378 1319.0
-422.6303 -44.835697 1324.0
-415.17215 -44.835697 1324.0
-407.71396 -44.835697 1324.0
-401.76733 -45.005016 1329.0
-394.28094 -45.005016 1329.0
-386.79462 -45.005016 1329.0
-377.88126 -44.835697 1324.0
-370.42303 -44.835697 1324.0
-362.96487 -44.835697 1324.0
-356.8492 -45.005016 1329.0
-349.36288 -45.005016 1329.0
-341.87656 -45.005016 1329.0
-335.64822 -45.174335 1334.0
-328.13373 -45.174335 1334.0
-319.41748 -45.005016 1329.0
-310.7576 -44.835697 1324.0
-303.2994 -44.835697 1324.0
-296.95844 -45.005016 1329.0
-288.38306 -44.835697 1324.0
-283.04663 -45.174335 1334.0
-275.53214 -45.174335 1334.0
-268.01764 -45.174335 1334.0
-261.4795 -45.343655 1339.0
-252.9886 -45.174335 1334.0
-245.47408 -45.174335 1334.0
-237.95958 -45.174335 1334.0
-229.58134 -45.005016 1329.0
-222.93054 -45.174335 1334.0
-215.41605 -45.174335 1334.0
-207.9015 -45.174335 1334.0
-200.38701 -45.174335 1334.0
-192.1496 -45.005016 1329.0
-184.66322 -45.005016 1329.0
-177.1769 -45.005016 1329.0
-170.32895 -45.174335 1334.0
-162.81444 -45.174335 1334.0
-155.29994 -45.174335 1334.0
-148.33932 -45.343655 1339.0
-68.36292 -30.071074 888.0
-63.36074 -30.071074 888.0
-58.227146 -30.003345 886.0
-27.75977 -45.512974 1344.0
-20.279026 -45.716156 1350.0
-12.674403 -45.716156 1350.0
-5.069781 -45.716156 1350.0
2.523576 -45.512974 1344.0
10.139562 -45.716156 1350.0
17.744184 -45.716156 1350.0
25.348806 -45.716156 1350.0
32.95343 -45.716156 1350.0
40.558052 -45.716156 1350.0
48.16277 -45.716156 1350.0
55.76739 -45.716156 1350.0
63.372017 -45.716156 1350.0
71.23952 -45.885475 1355.0
78.87231 -45.885475 1355.0
86.824394 -46.054794 1360.0
94.485344 -46.054794 1360.0
102.1463 -46.054794 1360.0
109.80726 -46.054794 1360.0
117.03634 -45.885475 1355.0
124.66922 -45.885475 1355.0
132.7902 -46.054794 1360.0
141.58717 -46.427296 1371.0
148.76555 -46.257977 1366.0
156.4603 -46.257977 1366.0
163.43411 -46.054794 1360.0
171.84991 -46.257977 1366.0
179.54466 -46.257977 1366.0
187.92476 -46.427296 1371.0
195.64767 -46.427296 1371.0
203.3707 -46.427296 1371.0
211.09361 -46.427296 1371.0
218.81653 -46.427296 1371.0
227.36563 -46.596615 1376.0
235.11671 -46.596615 1376.0
242.86789 -46.596615 1376.0
250.61897 -46.596615 1376.0
257.4312 -46.427296 1371.0
266.12112 -46.596615 1376.0
272.87704 -46.427296 1371.0
280.60007 -46.427296 1371.0
289.37448 -46.596615 1376.0
297.12555 -46.596615 1376.0
304.87665 -46.596615 1376.0
312.62772 -46.596615 1376.0
321.7759 -46.799797 1382.0
329.5608 -46.799797 1382.0
338.81027 -47.002983 1388.0
346.62894 -47.002983 1388.0
352.9154 -46.799797 1382.0
362.2664 -47.002983 1388.0
371.41824 -47.172302 1393.0
379.26508 -47.172302 1393.0
387.1119 -47.172302 1393.0
394.9588 -47.172302 1393.0
404.54068 -47.375484 1399.0
413.89532 -47.544804 1404.0
421.80414 -47.544804 1404.0
428.18265 -47.375484 1399.0
439.49194 -47.747986 1410.0
447.43463 -47.747986 1410.0
455.37726 -47.747986 1410.0
461.34827 -47.544804 1404.0
469.25708 -47.544804 1404.0
479.20508 -47.747986 1410.0
487.14777 -47.747986 1410.0
497.19714 -47.951168 1416.0
505.17355 -47.951168 1416.0
513.14996 -47.951168 1416.0
518.9182 -47.747986 1410.0
529.10284 -47.951168 1416.0
537.0793 -47.951168 1416.0
547.36523 -48.154354 1422.0
555.3754 -48.154354 1422.0
563.3856 -48.154354 1422.0
571.39594 -48.154354 1422.0
581.8509 -48.357536 1428.0
589.8949 -48.357536 1428.0
595.4266 -48.154354 1422.0
605.98285 -48.357536 1428.0
614.02704 -48.357536 1428.0
622.071 -48.357536 1428.0
630.115 -48.357536 1428.0
640.84033 -48.56072 1434.0
648.91815 -48.56072 1434.0
654.24713 -48.357536 1428.0
662.29114 -48.357536 1428.0
673.1516 -48.56072 1434.0
681.22943 -48.56072 1434.0
689.30725 -48.56072 1434.0
697.38513 -48.56072 1434.0
705.46295 -48.56072 1434.0
713.5407 -48.56072 1434.0
721.6185 -48.56072 1434.0
729.69635 -48.56072 1434.0
737.77423 -48.56072 1434.0
745.85205 -48.56072 1434.0
753.9298 -48.56072 1434.0
719.0686 -45.343655 1339.0
723.8981 -45.174335 1334.0
725.92975 -44.835697 1324.0
733.38794 -44.835697 1324.0
740.84607 -44.835697 1324.0
748.30426 -44.835697 1324.0
755.7625 -44.835697 1324.0
760.3384 -44.666378 1319.0
761.9476 -44.32774 1309.0
775.1984 -44.666378 1319.0
788.5619 -45.005016 1329.0
799.0432 -45.174335 1334.0
-752.72626 -50.925495 1289.0
-745.4652 -50.925495 1289.0
-741.0677 -51.12303 1294.0
-733.7785 -51.12303 1294.0
-726.48926 -51.12303 1294.0
-716.42114 -50.925495 1289.0
-709.1601 -50.925495 1289.0
-701.89905 -50.925495 1289.0
-697.3325 -51.12303 1294.0
-690.0433 -51.12303 1294.0
-682.7542 -51.12303 1294.0
-675.4649 -51.12303 1294.0
-673.3394 -51.518112 1304.0
-665.9939 -51.518112 1304.0
-656.1228 -51.32057 1299.0
-646.3082 -51.12303 1294.0
-639.019 -51.12303 1294.0
-631.7298 -51.12303 1294.0
-626.85345 -51.32057 1299.0
-621.9207 -51.518112 1304.0
-614.57526 -51.518112 1304.0
-609.55804 -51.71565 1309.0
-599.8842 -51.518112 1304.0
-594.81067 -51.71565 1309.0
-589.68085 -51.91319 1314.0
-580.0633 -51.71565 1309.0
-574.87714 -51.91319 1314.0
-567.4753 -51.91319 1314.0
-560.0734 -51.91319 1314.0
-550.56854 -51.71565 1309.0
-545.2697 -51.91319 1314.0
-539.91455 -52.11073 1319.0
-532.48456 -52.11073 1319.0
-525.05457 -52.11073 1319.0
-517.6245 -52.11073 1319.0
-512.12854 -52.308266 1324.0
-504.67032 -52.308266 1324.0
-497.21216 -52.308266 1324.0
-487.90445 -52.11073 1319.0
-480.47443 -52.11073 1319.0
-473.0444 -52.11073 1319.0
-465.61438 -52.11073 1319.0
-458.18436 -52.11073 1319.0
-450.75436 -52.11073 1319.0
-445.00485 -52.308266 1324.0
-437.5467 -52.308266 1324.0
-430.0885 -52.308266 1324.0
-422.6303 -52.308266 1324.0
-415.17215 -52.308266 1324.0
-407.71396 -52.308266 1324.0
-400.25577 -52.308266 1324.0
-394.28094 -52.505806 1329.0
-385.33942 -52.308266 1324.0
-377.88126 -52.308266 1324.0
-370.42303 -52.308266 1324.0
-362.96487 -52.308266 1324.0
-356.8492 -52.505806 1329.0
-350.67728 -52.703342 1334.0
-343.16278 -52.703342 1334.0
-336.90628 -52.900883 1339.0
-328.13373 -52.703342 1334.0
-319.41748 -52.505806 1329.0
-310.7576 -52.308266 1324.0
-303.2994 -52.308266 1324.0
-296.95844 -52.505806 1329.0
-288.38306 -52.308266 1324.0
-281.98575 -52.505806 1329.0
-275.53214 -52.703342 1334.0
-268.01764 -52.703342 1334.0
-260.5031 -52.703342 1334.0
-252.9886 -52.703342 1334.0
-244.554 -52.505806 1329.0
-237.06767 -52.505806 1329.0
-229.58134 -52.505806 1329.0
-222.93054 -52.703342 1334.0
-215.41605 -52.703342 1334.0
-207.9015 -52.703342 1334.0
-200.38701 -52.703342 1334.0
-191.4267 -52.308266 1324.0
-183.96849 -52.308266 1324.0
-177.1769 -52.505806 1329.0
-169.69052 -52.505806 1329.0
-162.81444 -52.703342 1334.0
-155.29994 -52.703342 1334.0
-148.33932 -52.900883 1339.0
-82.89999 -34.88535 883.0
-79.16152 -35.438457 897.0
-74.108635 -35.438457 897.0
-69.055786 -35.438457 897.0
-64.00291 -35.438457 897.0
-27.75977 -53.098423 1344.0
-12.674403 -53.33547 1350.0
-5.069781 -53.33547 1350.0
2.523576 -53.098423 1344.0
10.139562 -53.33547 1350.0
17.744184 -53.33547 1350.0
25.348806 -53.33547 1350.0
32.95343 -53.33547 1350.0
40.558052 -53.33547 1350.0
48.34115 -53.53301 1355.0
55.973938 -53.53301 1355.0
63.606728 -53.53301 1355.0
71.23952 -53.53301 1355.0
78.87231 -53.53301 1355.0
86.50519 -53.53301 1355.0
94.485344 -53.730545 1360.0
102.1463 -53.730545 1360.0
109.80726 -53.730545 1360.0
117.03634 -53.53301 1355.0
124.66922 -53.53301 1355.0
133.37605 -53.967594 1366.0
140.45117 -53.730545 1360.0
148.11212 -53.730545 1360.0
155.77307 -53.730545 1360.0
163.43411 -53.730545 1360.0
171.09508 -53.730545 1360.0
178.75603 -53.730545 1360.0
187.23941 -53.967594 1366.0
195.64767 -54.165134 1371.0
203.3707 -54.165134 1371.0
211.09361 -54.165134 1371.0
219.61455 -54.362667 1376.0
227.36563 -54.362667 1376.0
235.11671 -54.362667 1376.0
242.86789 -54.362667 1376.0
250.61897 -54.362667 1376.0
257.4312 -54.165134 1371.0
265.1541 -54.165134 1371.0
272.87704 -54.165134 1371.0
281.6234 -54.362667 1376.0
290.6363 -54.599716 1382.0
297.12555 -54.362667 1376.0
304.87665 -54.362667 1376.0
312.62772 -54.362667 1376.0
320.3789 -54.362667 1376.0
329.5608 -54.599716 1382.0
338.81027 -54.83676 1388.0
346.62894 -54.83676 1388.0
352.9154 -54.599716 1382.0
362.2664 -54.83676 1388.0
371.41824 -55.0343 1393.0
379.26508 -55.0343 1393.0
387.1119 -55.0343 1393.0
396.65997 -55.271347 1399.0
405.9865 -55.468887 1404.0
413.89532 -55.468887 1404.0
420.302 -55.271347 1399.0
428.18265 -55.271347 1399.0
437.62177 -55.468887 1404.0
447.43463 -55.705936 1410.0
453.43945 -55.468887 1404.0
463.31985 -55.705936 1410.0
469.25708 -55.468887 1404.0
479.20508 -55.705936 1410.0
487.14777 -55.705936 1410.0
495.0904 -55.705936 1410.0
505.17355 -55.942978 1416.0
513.14996 -55.942978 1416.0
518.9182 -55.705936 1410.0
529.10284 -55.942978 1416.0
539.355 -56.180027 1422.0
547.36523 -56.180027 1422.0
555.3754 -56.180027 1422.0
563.3856 -56.180027 1422.0
571.39594 -56.180027 1422.0
579.4061 -56.180027 1422.0
589.8949 -56.417072 1428.0
595.4266 -56.180027 1422.0
605.98285 -56.417072 1428.0
614.02704 -56.417072 1428.0
622.071 -56.417072 1428.0
630.115 -56.417072 1428.0
638.159 -56.417072 1428.0
646.203 -56.417072 1428.0
654.24713 -56.417072 1428.0
662.29114 -56.417072 1428.0
670.3351 -56.417072 1428.0
681.22943 -56.65412 1434.0
689.30725 -56.65412 1434.0
697.38513 -56.65412 1434.0
702.5112 -56.417072 1428.0
713.5407 -56.65412 1434.0
721.6185 -56.65412 1434.0
729.69635 -56.65412 1434.0
737.77423 -56.65412 1434.0
745.85205 -56.65412 1434.0
719.0686 -52.900883 1339.0
723.8981 -52.703342 1334.0
731.4126 -52.703342 1334.0
738.9271 -52.703342 1334.0
746.4416 -52.703342 1334.0
753.9561 -52.703342 1334.0
758.6166 -52.505806 1329.0
763.22064 -52.308266 1324.0
764.858 -51.91319 1314.0
775.1984 -52.11073 1319.0
788.5619 -52.505806 1329.0
793.0534 -52.308266 1324.0
-752.72626 -58.200592 1289.0
-745.4652 -58.200592 1289.0
-738.20416 -58.200592 1289.0
-730.9432 -58.200592 1289.0
-726.48926 -58.42635 1294.0
-716.42114 -58.200592 1289.0
-709.1601 -58.200592 1289.0
-699.1764 -57.974834 1284.0
-694.63806 -58.200592 1289.0
-690.0433 -58.42635 1294.0
-682.7542 -58.42635 1294.0
-680.68494 -58.87787 1304.0
-673.3394 -58.87787 1304.0
-663.44025 -58.65211 1299.0
-653.59735 -58.42635 1294.0
-646.3082 -58.42635 1294.0
-641.48816 -58.65211 1299.0
-631.7298 -58.42635 1294.0
-626.85345 -58.65211 1299.0
-621.9207 -58.87787 1304.0
-614.57526 -58.87787 1304.0
-607.2297 -58.87787 1304.0
-599.8842 -58.87787 1304.0
-594.81067 -59.103626 1309.0
-587.437 -59.103626 1309.0
-580.0633 -59.103626 1309.0
-574.87714 -59.329388 1314.0
-567.4753 -59.329388 1314.0
-560.0734 -59.329388 1314.0
-550.56854 -59.103626 1309.0
-545.2697 -59.329388 1314.0
-539.91455 -59.555145 1319.0
-532.48456 -59.555145 1319.0
-525.05457 -59.555145 1319.0
-517.6245 -59.555145 1319.0
-510.1945 -59.555145 1319.0
-502.76447 -59.555145 1319.0
-497.21216 -59.780903 1324.0
-487.90445 -59.555145 1319.0
-480.47443 -59.555145 1319.0
-473.0444 -59.555145 1319.0
-465.61438 -59.555145 1319.0
-458.18436 -59.555145 1319.0
-452.46307 -59.780903 1324.0
-445.00485 -59.780903 1324.0
-437.5467 -59.780903 1324.0
-430.0885 -59.780903 1324.0
-422.6303 -59.780903 1324.0
-415.17215 -59.780903 1324.0
-407.71396 -59.780903 1324.0
-400.25577 -59.780903 1324.0
-392.79758 -59.780903 1324.0
-385.33942 -59.780903 1324.0
-377.88126 -59.780903 1324.0
-370.42303 -59.780903 1324.0
-362.96487 -59.780903 1324.0
-355.50665 -59.780903 1324.0
-349.36288 -60.00666 1329.0
-341.87656 -60.00666 1329.0
-334.39017 -60.00666 1329.0
-326.90384 -60.00666 1329.0
-319.41748 -60.00666 1329.0
-311.93115 -60.00666 1329.0
-304.44482 -60.00666 1329.0
-296.95844 -60.00666 1329.0
-289.4721 -60.00666 1329.0
-283.04663 -60.23242 1334.0
-275.53214 -60.23242 1334.0
-269.02222 -60.45818 1339.0
-261.4795 -60.45818 1339.0
-252.9886 -60.23242 1334.0
-244.554 -60.00666 1329.0
-237.06767 -60.00666 1329.0
-229.58134 -60.00666 1329.0
-222.09497 -60.00666 1329.0
-215.41605 -60.23242 1334.0
-207.9015 -60.23242 1334.0
-199.63593 -60.00666 1329.0
-191.4267 -59.780903 1324.0
-183.96849 -59.780903 1324.0
-177.1769 -60.00666 1329.0
-169.69052 -60.00666 1329.0
-162.2042 -60.00666 1329.0
-155.29994 -60.23242 1334.0
-148.89325 -60.683937 1344.0
-79.602776 -40.72687 902.0
-74.108635 -40.501114 897.0
-69.44072 -40.72687 902.0
-64.50237 -40.817177 904.0
-12.674403 -60.95485 1350.0
-5.0472484 -60.683937 1344.0
2.523576 -60.683937 1344.0
10.094497 -60.683937 1344.0
17.744184 -60.95485 1350.0
25.348806 -60.95485 1350.0
32.95343 -60.95485 1350.0
40.558052 -60.95485 1350.0
48.16277 -60.95485 1350.0
55.973938 -61.18061 1355.0
63.372017 -60.95485 1350.0
70.97664 -60.95485 1350.0
78.87231 -61.18061 1355.0
86.50519 -61.18061 1355.0
94.13798 -61.18061 1355.0
102.1463 -61.40637 1360.0
109.80726 -61.40637 1360.0
117.03634 -61.18061 1355.0
124.66922 -61.18061 1355.0
132.7902 -61.40637 1360.0
140.45117 -61.40637 1360.0
148.11212 -61.40637 1360.0
156.4603 -61.67728 1366.0
164.15515 -61.67728 1366.0
171.84991 -61.67728 1366.0
179.54466 -61.67728 1366.0
187.92476 -61.90304 1371.0
195.64767 -61.90304 1371.0
203.3707 -61.90304 1371.0
211.09361 -61.90304 1371.0
218.81653 -61.90304 1371.0
226.53944 -61.90304 1371.0
234.26236 -61.90304 1371.0
241.98538 -61.90304 1371.0
250.61897 -62.1288 1376.0
257.4312 -61.90304 1371.0
265.1541 -61.90304 1371.0
272.87704 -61.90304 1371.0
281.6234 -62.1288 1376.0
289.37448 -62.1288 1376.0
297.12555 -62.1288 1376.0
303.7688 -61.90304 1371.0
312.62772 -62.1288 1376.0
321.7759 -62.399704 1382.0
329.5608 -62.399704 1382.0
337.34567 -62.399704 1382.0
345.13055 -62.399704 1382.0
354.44763 -62.67062 1388.0
362.2664 -62.67062 1388.0
371.41824 -62.896378 1393.0
379.26508 -62.896378 1393.0
387.1119 -62.896378 1393.0
394.9588 -62.896378 1393.0
404.54068 -63.16729 1399.0
412.42133 -63.16729 1399.0
418.4994 -62.896378 1393.0
426.34625 -62.896378 1393.0
436.0633 -63.16729 1399.0
445.53064 -63.393047 1404.0
453.43945 -63.393047 1404.0
463.31985 -63.663956 1410.0
471.26245 -63.663956 1410.0
479.20508 -63.663956 1410.0
487.14777 -63.663956 1410.0
497.19714 -63.934868 1416.0
505.17355 -63.934868 1416.0
513.14996 -63.934868 1416.0
518.9182 -63.663956 1410.0
529.10284 -63.934868 1416.0
539.355 -64.20577 1422.0
547.36523 -64.20577 1422.0
555.3754 -64.20577 1422.0
563.3856 -64.20577 1422.0
571.39594 -64.20577 1422.0
579.4061 -64.20577 1422.0
589.8949 -64.476685 1428.0
597.9389 -64.476685 1428.0
605.98285 -64.476685 1428.0
614.02704 -64.476685 1428.0
622.071 -64.476685 1428.0
630.115 -64.476685 1428.0
638.159 -64.476685 1428.0
646.203 -64.476685 1428.0
654.24713 -64.476685 1428.0
662.29114 -64.476685 1428.0
670.3351 -64.476685 1428.0
681.22943 -64.747604 1434.0
689.30725 -64.747604 1434.0
697.38513 -64.747604 1434.0
702.5112 -64.476685 1428.0
710.55524 -64.476685 1428.0
718.5992 -64.476685 1428.0
729.69635 -64.747604 1434.0
737.77423 -64.747604 1434.0
745.85205 -64.747604 1434.0
753.9298 -64.747604 1434.0
726.6114 -60.45818 1339.0
731.4126 -60.23242 1334.0
738.9271 -60.23242 1334.0
746.4416 -60.23242 1334.0
753.9561 -60.23242 1334.0
758.6166 -60.00666 1329.0
760.3384 -59.555145 1319.0
764.858 -59.329388 1314.0
775.1984 -59.555145 1319.0
782.6284 -59.555145 1319.0
790.0585 -59.555145 1319.0
-752.72626 -65.475624 1289.0
-745.4652 -65.475624 1289.0
-738.20416 -65.475624 1289.0
-730.9432 -65.475624 1289.0
-726.48926 -65.72961 1294.0
-716.42114 -65.475624 1289.0
-709.1601 -65.475624 1289.0
-696.9983 -65.01846 1280.0
-691.94354 -65.22165 1284.0
-687.37695 -65.475624 1289.0
-682.7542 -65.72961 1294.0
-680.68494 -66.237564 1304.0
-673.3394 -66.237564 1304.0
-665.9939 -66.237564 1304.0
-656.1228 -65.98358 1299.0
-648.80554 -65.98358 1299.0
-641.48816 -65.98358 1299.0
-634.1708 -65.98358 1299.0
-629.2663 -66.237564 1304.0
-621.9207 -66.237564 1304.0
-614.57526 -66.237564 1304.0
-607.2297 -66.237564 1304.0
-599.8842 -66.237564 1304.0
-594.81067 -66.49154 1309.0
-587.437 -66.49154 1309.0
-580.0633 -66.49154 1309.0
-574.87714 -66.74552 1314.0
-567.4753 -66.74552 1314.0
-557.94226 -66.49154 1309.0
-550.56854 -66.49154 1309.0
-543.1949 -66.49154 1309.0
-537.86786 -66.74552 1314.0
-530.466 -66.74552 1314.0
-525.05457 -66.9995 1319.0
-517.6245 -66.9995 1319.0
-510.1945 -66.9995 1319.0
-502.76447 -66.9995 1319.0
-497.21216 -67.25347 1324.0
-487.90445 -66.9995 1319.0
-482.29578 -67.25347 1324.0
-473.0444 -66.9995 1319.0
-465.61438 -66.9995 1319.0
-459.92123 -67.25347 1324.0
-452.46307 -67.25347 1324.0
-445.00485 -67.25347 1324.0
-437.5467 -67.25347 1324.0
-430.0885 -67.25347 1324.0
-422.6303 -67.25347 1324.0
-415.17215 -67.25347 1324.0
-407.71396 -67.25347 1324.0
-400.25577 -67.25347 1324.0
-392.79758 -67.25347 1324.0
-385.33942 -67.25347 1324.0
-377.88126 -67.25347 1324.0
-370.42303 -67.25347 1324.0
-362.96487 -67.25347 1324.0
-355.50665 -67.25347 1324.0
-348.0485 -67.25347 1324.0
-340.59033 -67.25347 1324.0
-334.39017 -67.507454 1329.0
-326.90384 -67.507454 1329.0
-320.6192 -67.76143 1334.0
-311.93115 -67.507454 1329.0
-305.5902 -67.76143 1334.0
-296.95844 -67.507454 1329.0
-289.4721 -67.507454 1329.0
-281.98575 -67.507454 1329.0
-275.53214 -67.76143 1334.0
-268.01764 -67.76143 1334.0
-261.4795 -68.01541 1339.0
-252.9886 -67.76143 1334.0
-244.554 -67.507454 1329.0
-236.17577 -67.25347 1324.0
-228.7176 -67.25347 1324.0
-222.09497 -67.507454 1329.0
-215.41605 -67.76143 1334.0
-207.9015 -67.76143 1334.0
-200.38701 -67.76143 1334.0
-192.1496 -67.507454 1329.0
-184.66322 -67.507454 1329.0
-177.84348 -67.76143 1334.0
-170.32895 -67.76143 1334.0
-162.81444 -67.76143 1334.0
-155.88203 -68.01541 1339.0
-148.33932 -68.01541 1339.0
-79.602776 -45.817703 902.0
-74.27387 -45.665314 899.0
-69.44072 -45.817703 902.0
-64.50237 -45.919292 904.0
-59.60725 -46.07168 907.0
-5.0472484 -68.26939 1344.0
2.5141876 -68.01541 1339.0
10.094497 -68.26939 1344.0
17.744184 -68.574165 1350.0
25.348806 -68.574165 1350.0
32.95343 -68.574165 1350.0
40.558052 -68.574165 1350.0
48.16277 -68.574165 1350.0
55.973938 -68.82814 1355.0
63.372017 -68.574165 1350.0
71.23952 -68.82814 1355.0
78.87231 -68.82814 1355.0
86.50519 -68.82814 1355.0
94.13798 -68.82814 1355.0
102.1463 -69.08212 1360.0
109.80726 -69.08212 1360.0
117.46821 -69.08212 1360.0
125.12926 -69.08212 1360.0
132.7902 -69.08212 1360.0
140.45117 -69.08212 1360.0
148.76555 -69.386894 1366.0
156.4603 -69.386894 1366.0
164.15515 -69.386894 1366.0
171.84991 -69.386894 1366.0
180.20184 -69.64088 1371.0
187.92476 -69.64088 1371.0
195.64767 -69.64088 1371.0
203.3707 -69.64088 1371.0
211.09361 -69.64088 1371.0
218.81653 -69.64088 1371.0
226.53944 -69.64088 1371.0
234.26236 -69.64088 1371.0
241.98538 -69.64088 1371.0
250.61897 -69.894844 1376.0
257.4312 -69.64088 1371.0
265.1541 -69.64088 1371.0
272.87704 -69.64088 1371.0
281.6234 -69.894844 1376.0
289.37448 -69.894844 1376.0
297.12555 -69.894844 1376.0
303.7688 -69.64088 1371.0
312.62772 -69.894844 1376.0
321.7759 -70.19962 1382.0
329.5608 -70.19962 1382.0
337.34567 -70.19962 1382.0
346.62894 -70.504395 1388.0
354.44763 -70.504395 1388.0
362.2664 -70.504395 1388.0
371.41824 -70.75838 1393.0
379.26508 -70.75838 1393.0
387.1119 -70.75838 1393.0
394.9588 -70.75838 1393.0
402.8057 -70.75838 1393.0
410.65256 -70.75838 1393.0
418.4994 -70.75838 1393.0
428.18265 -71.06315 1399.0
436.0633 -71.06315 1399.0
443.944 -71.06315 1399.0
453.43945 -71.31713 1404.0
463.31985 -71.62191 1410.0
471.26245 -71.62191 1410.0
479.20508 -71.62191 1410.0
489.22073 -71.926674 1416.0
497.19714 -71.926674 1416.0
505.17355 -71.926674 1416.0
513.14996 -71.926674 1416.0
518.9182 -71.62191 1410.0
526.8609 -71.62191 1410.0
537.0793 -71.926674 1416.0
545.05566 -71.926674 1416.0
555.3754 -72.23145 1422.0
563.3856 -72.23145 1422.0
571.39594 -72.23145 1422.0
576.96136 -71.926674 1416.0
587.4163 -72.23145 1422.0
597.9389 -72.536224 1428.0
605.98285 -72.536224 1428.0
614.02704 -72.536224 1428.0
622.071 -72.536224 1428.0
630.115 -72.536224 1428.0
638.159 -72.536224 1428.0
646.203 -72.536224 1428.0
654.24713 -72.536224 1428.0
665.07385 -72.841 1434.0
670.3351 -72.536224 1428.0
681.22943 -72.841 1434.0
689.30725 -72.841 1434.0
697.38513 -72.841 1434.0
702.5112 -72.536224 1428.0
710.55524 -72.536224 1428.0
718.5992 -72.536224 1428.0
729.69635 -72.841 1434.0
737.77423 -72.841 1434.0
748.9727 -73.145775 1440.0
753.9298 -72.841 1434.0
736.89545 -68.26939 1344.0
741.6967 -68.01541 1339.0
749.2394 -68.01541 1339.0
756.78204 -68.01541 1339.0
761.47064 -67.76143 1334.0
763.22064 -67.25347 1324.0
767.76843 -66.9995 1319.0
775.1984 -66.9995 1319.0
779.6617 -66.74552 1314.0
790.0585 -66.9995 1319.0
-752.72626 -72.750725 1289.0
-745.4652 -72.750725 1289.0
-735.3407 -72.46853 1284.0
-730.9432 -72.750725 1289.0
-723.68207 -72.750725 1289.0
-713.64215 -72.46853 1284.0
-706.40924 -72.46853 1284.0
-696.9983 -72.24277 1280.0
-691.94354 -72.46853 1284.0
-687.37695 -72.750725 1289.0
-685.39233 -73.315125 1299.0
-675.4649 -73.03293 1294.0
-670.75757 -73.315125 1299.0
-665.9939 -73.59732 1304.0
-656.1228 -73.315125 1299.0
-651.30286 -73.59732 1304.0
-643.95734 -73.59732 1304.0
-636.6118 -73.59732 1304.0
-629.2663 -73.59732 1304.0
-621.9207 -73.59732 1304.0
-614.57526 -73.59732 1304.0
-607.2297 -73.59732 1304.0
-599.8842 -73.59732 1304.0
-592.5387 -73.59732 1304.0
-585.1932 -73.59732 1304.0
-580.0633 -73.879524 1309.0
-572.68964 -73.879524 1309.0
-567.4753 -74.16172 1314.0
-560.0734 -74.16172 1314.0
-552.6716 -74.16172 1314.0
-545.2697 -74.16172 1314.0
-537.86786 -74.16172 1314.0
-530.466 -74.16172 1314.0
-525.05457 -74.44392 1319.0
-517.6245 -74.44392 1319.0
-508.26047 -74.16172 1314.0
-502.76447 -74.44392 1319.0
-497.21216 -74.72611 1324.0
-487.90445 -74.44392 1319.0
-480.47443 -74.44392 1319.0
-473.0444 -74.44392 1319.0
-465.61438 -74.44392 1319.0
-458.18436 -74.44392 1319.0
-450.75436 -74.44392 1319.0
-443.32434 -74.44392 1319.0
-437.5467 -74.72611 1324.0
-430.0885 -74.72611 1324.0
-422.6303 -74.72611 1324.0
-415.17215 -74.72611 1324.0
-407.71396 -74.72611 1324.0
-400.25577 -74.72611 1324.0
-392.79758 -74.72611 1324.0
-385.33942 -74.72611 1324.0
-377.88126 -74.72611 1324.0
-371.82193 -75.008316 1329.0
-364.33557 -75.008316 1329.0
-355.50665 -74.72611 1324.0
-348.0485 -74.72611 1324.0
-340.59033 -74.72611 1324.0
-334.39017 -75.008316 1329.0
-326.90384 -75.008316 1329.0
-320.6192 -75.29051 1334.0
-313.1047 -75.29051 1334.0
-304.44482 -75.008316 1329.0
-296.95844 -75.008316 1329.0
-289.4721 -75.008316 1329.0
-281.98575 -75.008316 1329.0
-275.53214 -75.29051 1334.0
-268.01764 -75.29051 1334.0
-261.4795 -75.57271 1339.0
-252.9886 -75.29051 1334.0
-245.47408 -75.29051 1334.0
-237.06767 -75.008316 1329.0
-229.58134 -75.008316 1329.0
-222.93054 -75.29051 1334.0
-215.41605 -75.29051 1334.0
-207.9015 -75.29051 1334.0
-198.88486 -74.72611 1324.0
-192.1496 -75.008316 1329.0
-184.66322 -75.008316 1329.0
-177.84348 -75.29051 1334.0
-170.32895 -75.29051 1334.0
-163.4247 -75.57271 1339.0
-84.40214 -50.739258 899.0
-79.33802 -50.739258 899.0
-74.27387 -50.739258 899.0
-69.44072 -50.908577 902.0
-64.359665 -50.908577 902.0
-5.0472484 -75.85491 1344.0
2.523576 -75.85491 1344.0
10.094497 -75.85491 1344.0
17.744184 -76.19355 1350.0
25.348806 -76.19355 1350.0
32.95343 -76.19355 1350.0
40.558052 -76.19355 1350.0
48.16277 -76.19355 1350.0
55.76739 -76.19355 1350.0
63.606728 -76.475746 1355.0
71.23952 -76.475746 1355.0
78.87231 -76.475746 1355.0
86.50519 -76.475746 1355.0
94.13798 -76.475746 1355.0
101.77077 -76.475746 1355.0
109.40355 -76.475746 1355.0
117.46821 -76.75794 1360.0
125.12926 -76.75794 1360.0
132.7902 -76.75794 1360.0
140.45117 -76.75794 1360.0
148.76555 -77.09658 1366.0
156.4603 -77.09658 1366.0
164.15515 -77.09658 1366.0
171.84991 -77.09658 1366.0
180.20184 -77.37878 1371.0
187.92476 -77.37878 1371.0
195.64767 -77.37878 1371.0
203.3707 -77.37878 1371.0
211.09361 -77.37878 1371.0
218.81653 -77.37878 1371.0
226.53944 -77.37878 1371.0
234.26236 -77.37878 1371.0
242.86789 -77.66098 1376.0
250.61897 -77.66098 1376.0
257.4312 -77.37878 1371.0
265.1541 -77.37878 1371.0
272.87704 -77.37878 1371.0
280.60007 -77.37878 1371.0
289.37448 -77.66098 1376.0
297.12555 -77.66098 1376.0
304.87665 -77.66098 1376.0
312.62772 -77.66098 1376.0
321.7759 -77.99962 1382.0
330.9916 -78.33826 1388.0
337.34567 -77.99962 1382.0
345.13055 -77.99962 1382.0
354.44763 -78.33826 1388.0
362.2664 -78.33826 1388.0
370.08508 -78.33826 1388.0
379.26508 -78.62045 1393.0
387.1119 -78.62045 1393.0
394.9588 -78.62045 1393.0
402.8057 -78.62045 1393.0
410.65256 -78.62045 1393.0
420.302 -78.95909 1399.0
428.18265 -78.95909 1399.0
436.0633 -78.95909 1399.0
442.04 -78.62045 1393.0
451.82465 -78.95909 1399.0
463.31985 -79.579926 1410.0
471.26245 -79.579926 1410.0
479.20508 -79.579926 1410.0
489.22073 -79.918564 1416.0
497.19714 -79.918564 1416.0
505.17355 -79.918564 1416.0
513.14996 -79.918564 1416.0
518.9182 -79.579926 1410.0
526.8609 -79.579926 1410.0
537.0793 -79.918564 1416.0
542.7461 -79.579926 1410.0
553.03204 -79.918564 1416.0
561.0085 -79.918564 1416.0
571.39594 -80.2572 1422.0
576.96136 -79.918564 1416.0
587.4163 -80.2572 1422.0
597.9389 -80.59584 1428.0
605.98285 -80.59584 1428.0
614.02704 -80.59584 1428.0
622.071 -80.59584 1428.0
630.115 -80.59584 1428.0
638.159 -80.59584 1428.0
646.203 -80.59584 1428.0
656.99603 -80.93448 1434.0
665.07385 -80.93448 1434.0
670.3351 -80.59584 1428.0
681.22943 -80.93448 1434.0
689.30725 -80.93448 1434.0
697.38513 -80.93448 1434.0
705.46295 -80.93448 1434.0
713.5407 -80.93448 1434.0
721.6185 -80.93448 1434.0
729.69635 -80.93448 1434.0
737.77423 -80.93448 1434.0
745.85205 -80.93448 1434.0
753.9298 -80.93448 1434.0
740.1851 -76.19355 1350.0
738.9271 -75.29051 1334.0
746.4416 -75.29051 1334.0
753.9561 -75.29051 1334.0
755.7625 -74.72611 1324.0
763.22064 -74.72611 1324.0
770.67883 -74.72611 1324.0
775.1984 -74.44392 1319.0
779.6617 -74.16172 1314.0
790.0585 -74.44392 1319.0
-752.72626 -80.025826 1289.0
-745.4652 -80.025826 1289.0
-738.20416 -80.025826 1289.0
-730.9432 -80.025826 1289.0
-723.68207 -80.025826 1289.0
-711.41895 -79.46707 1280.0
-709.1601 -80.025826 1289.0
-699.1764 -79.71541 1284.0
-691.94354 -79.71541 1284.0
-687.37695 -80.025826 1289.0
-685.39233 -80.64667 1299.0
-675.4649 -80.33625 1294.0
-670.75757 -80.64667 1299.0
-663.44025 -80.64667 1299.0
-653.59735 -80.33625 1294.0
-646.3082 -80.33625 1294.0
-643.95734 -80.957085 1304.0
-639.0528 -81.2675 1309.0
-629.2663 -80.957085 1304.0
-621.9207 -80.957085 1304.0
-612.21875 -80.64667 1299.0
-604.90137 -80.64667 1299.0
-599.8842 -80.957085 1304.0
-592.5387 -80.957085 1304.0
-585.1932 -80.957085 1304.0
-580.0633 -81.2675 1309.0
-572.68964 -81.2675 1309.0
-567.4753 -81.57792 1314.0
-560.0734 -81.57792 1314.0
-552.6716 -81.57792 1314.0
-545.2697 -81.57792 1314.0
-539.91455 -81.888336 1319.0
-532.48456 -81.888336 1319.0
-525.05457 -81.888336 1319.0
-517.6245 -81.888336 1319.0
-510.1945 -81.888336 1319.0
-502.76447 -81.888336 1319.0
-495.33444 -81.888336 1319.0
-487.90445 -81.888336 1319.0
-480.47443 -81.888336 1319.0
-473.0444 -81.888336 1319.0
-465.61438 -81.888336 1319.0
-458.18436 -81.888336 1319.0
-450.75436 -81.888336 1319.0
-443.32434 -81.888336 1319.0
-435.89432 -81.888336 1319.0
-430.0885 -82.19875 1324.0
-422.6303 -82.19875 1324.0
-415.17215 -82.19875 1324.0
-407.71396 -82.19875 1324.0
-400.25577 -82.19875 1324.0
-392.79758 -82.19875 1324.0
-385.33942 -82.19875 1324.0
-377.88126 -82.19875 1324.0
-370.42303 -82.19875 1324.0
-362.96487 -82.19875 1324.0
-355.50665 -82.19875 1324.0
-348.0485 -82.19875 1324.0
-341.87656 -82.50917 1329.0
-335.64822 -82.819595 1334.0
-328.13373 -82.819595 1334.0
-320.6192 -82.819595 1334.0
-313.1047 -82.819595 1334.0
-304.44482 -82.50917 1329.0
-296.95844 -82.50917 1329.0
-289.4721 -82.50917 1329.0
-281.98575 -82.50917 1329.0
-275.53214 -82.819595 1334.0
-268.01764 -82.819595 1334.0
-260.5031 -82.819595 1334.0
-252.9886 -82.819595 1334.0
-142.21431 -52.833187 851.0
-137.42058 -52.833187 851.0
-132.62682 -52.833187 851.0
-184.66322 -82.50917 1329.0
-177.1769 -82.50917 1329.0
-170.32895 -82.819595 1334.0
-162.81444 -82.819595 1334.0
-79.16152 -55.689034 897.0
-74.108635 -55.689034 897.0
-69.055786 -55.689034 897.0
-64.00291 -55.689034 897.0
-58.81862 -55.56487 895.0
-12.674403 -83.81293 1350.0
-5.0472484 -83.44043 1344.0
2.5141876 -83.13001 1339.0
10.094497 -83.44043 1344.0
17.665321 -83.44043 1344.0
25.348806 -83.81293 1350.0
32.95343 -83.81293 1350.0
40.558052 -83.81293 1350.0
48.16277 -83.81293 1350.0
55.76739 -83.81293 1350.0
63.606728 -84.123344 1355.0
71.23952 -84.123344 1355.0
78.87231 -84.123344 1355.0
86.50519 -84.123344 1355.0
94.13798 -84.123344 1355.0
101.77077 -84.123344 1355.0
109.40355 -84.123344 1355.0
117.03634 -84.123344 1355.0
125.12926 -84.43376 1360.0
132.7902 -84.43376 1360.0
140.45117 -84.43376 1360.0
148.76555 -84.80627 1366.0
156.4603 -84.80627 1366.0
164.15515 -84.80627 1366.0
171.84991 -84.80627 1366.0
180.20184 -85.116684 1371.0
187.92476 -85.116684 1371.0
195.64767 -85.116684 1371.0
203.3707 -85.116684 1371.0
211.09361 -85.116684 1371.0
218.81653 -85.116684 1371.0
226.53944 -85.116684 1371.0
235.11671 -85.42711 1376.0
242.86789 -85.42711 1376.0
250.61897 -85.42711 1376.0
258.37006 -85.42711 1376.0
265.1541 -85.116684 1371.0
272.87704 -85.116684 1371.0
281.6234 -85.42711 1376.0
289.37448 -85.42711 1376.0
297.12555 -85.42711 1376.0
304.87665 -85.42711 1376.0
312.62772 -85.42711 1376.0
321.7759 -85.79961 1382.0
329.5608 -85.79961 1382.0
337.34567 -85.79961 1382.0
345.13055 -85.79961 1382.0
352.9154 -85.79961 1382.0
362.2664 -86.17211 1388.0
370.08508 -86.17211 1388.0
379.26508 -86.48253 1393.0
387.1119 -86.48253 1393.0
394.9588 -86.48253 1393.0
402.8057 -86.48253 1393.0
412.42133 -86.85503 1399.0
420.302 -86.85503 1399.0
428.18265 -86.85503 1399.0
436.0633 -86.85503 1399.0
442.04 -86.48253 1393.0
451.82465 -86.85503 1399.0
461.34827 -87.16544 1404.0
471.26245 -87.53795 1410.0
479.20508 -87.53795 1410.0
489.22073 -87.91045 1416.0
497.19714 -87.91045 1416.0
505.17355 -87.91045 1416.0
513.14996 -87.91045 1416.0
518.9182 -87.53795 1410.0
526.8609 -87.53795 1410.0
534.8035 -87.53795 1410.0
545.05566 -87.91045 1416.0
553.03204 -87.91045 1416.0
561.0085 -87.91045 1416.0
568.985 -87.91045 1416.0
576.96136 -87.91045 1416.0
587.4163 -88.28295 1422.0
597.9389 -88.65546 1428.0
605.98285 -88.65546 1428.0
614.02704 -88.65546 1428.0
619.4573 -88.28295 1422.0
627.46747 -88.28295 1422.0
638.159 -88.65546 1428.0
648.91815 -89.027954 1434.0
656.99603 -89.027954 1434.0
665.07385 -89.027954 1434.0
670.3351 -88.65546 1428.0
678.3791 -88.65546 1428.0
689.30725 -89.027954 1434.0
697.38513 -89.027954 1434.0
705.46295 -89.027954 1434.0
713.5407 -89.027954 1434.0
721.6185 -89.027954 1434.0
729.69635 -89.027954 1434.0
737.77423 -89.027954 1434.0
745.85205 -89.027954 1434.0
753.9298 -89.027954 1434.0
733.5681 -84.80627 1366.0
738.0071 -84.43376 1360.0
734.15405 -83.13001 1339.0
738.9271 -82.819595 1334.0
746.4416 -82.819595 1334.0
753.9561 -82.819595 1334.0
752.9084 -81.888336 1319.0
763.22064 -82.19875 1324.0
770.67883 -82.19875 1324.0
778.13696 -82.19875 1324.0
782.6284 -81.888336 1319.0
790.0585 -81.888336 1319.0
-749.80646 -86.96223 1284.0
-748.3568 -87.639496 1294.0
-738.20416 -87.300865 1289.0
-733.7785 -87.639496 1294.0
-723.68207 -87.300865 1289.0
-713.64215 -86.96223 1284.0
-709.1601 -87.300865 1289.0
-699.1764 -86.96223 1284.0
-694.63806 -87.300865 1289.0
-687.37695 -87.300865 1289.0
-682.7542 -87.639496 1294.0
-672.8549 -87.300865 1289.0
-668.1758 -87.639496 1294.0
-663.44025 -87.978134 1299.0
-653.59735 -87.639496 1294.0
-643.8109 -87.300865 1289.0
-641.48816 -87.978134 1299.0
-639.0528 -88.65541 1309.0
-631.67914 -88.65541 1309.0
-621.9207 -88.31677 1304.0
-612.21875 -87.978134 1299.0
-607.2297 -88.31677 1304.0
-599.8842 -88.31677 1304.0
-594.81067 -88.65541 1309.0
-587.437 -88.65541 1309.0
-580.0633 -88.65541 1309.0
-574.87714 -88.99405 1314.0
-567.4753 -88.99405 1314.0
-560.0734 -88.99405 1314.0
-554.7746 -89.33269 1319.0
-547.3446 -89.33269 1319.0
-541.96124 -89.671326 1324.0
-532.48456 -89.33269 1319.0
-525.05457 -89.33269 1319.0
-515.6623 -88.99405 1314.0
-510.1945 -89.33269 1319.0
-502.76447 -89.33269 1319.0
-495.33444 -89.33269 1319.0
-486.05493 -88.99405 1314.0
-480.47443 -89.33269 1319.0
-473.0444 -89.33269 1319.0
-465.61438 -89.33269 1319.0
-458.18436 -89.33269 1319.0
-450.75436 -89.33269 1319.0
-443.32434 -89.33269 1319.0
-437.5467 -89.671326 1324.0
-430.0885 -89.671326 1324.0
-422.6303 -89.671326 1324.0
-415.17215 -89.671326 1324.0
-407.71396 -89.671326 1324.0
-400.25577 -89.671326 1324.0
-392.79758 -89.671326 1324.0
-385.33942 -89.671326 1324.0
-377.88126 -89.671326 1324.0
-371.82193 -90.009964 1329.0
-364.33557 -90.009964 1329.0
-355.50665 -89.671326 1324.0
-348.0485 -89.671326 1324.0
-343.16278 -90.3486 1334.0
-335.64822 -90.3486 1334.0
-326.90384 -90.009964 1329.0
-319.41748 -90.009964 1329.0
-313.1047 -90.3486 1334.0
-304.44482 -90.009964 1329.0
-298.07565 -90.3486 1334.0
-290.56116 -90.3486 1334.0
-283.04663 -90.3486 1334.0
-274.49942 -90.009964 1329.0
-266.0085 -89.671326 1324.0
-259.5267 -90.009964 1329.0
-146.66258 -57.50072 849.0
-141.37874 -57.29754 846.0
-136.61317 -57.29754 846.0
-131.53587 -57.162083 844.0
-127.53266 -57.50072 849.0
-122.7502 -57.50072 849.0
-116.71716 -56.89117 840.0
-112.78529 -57.29754 846.0
-107.25361 -56.89117 840.0
-68.90182 -60.61619 895.0
-63.860203 -60.61619 895.0
-58.62146 -60.413006 892.0
-5.0472484 -91.02588 1344.0
2.5141876 -90.68724 1339.0
10.094497 -91.02588 1344.0
17.744184 -91.43224 1350.0
25.348806 -91.43224 1350.0
32.95343 -91.43224 1350.0
40.558052 -91.43224 1350.0
48.16277 -91.43224 1350.0
55.76739 -91.43224 1350.0
63.372017 -91.43224 1350.0
70.97664 -91.43224 1350.0
78.58126 -91.43224 1350.0
86.50519 -91.77088 1355.0
94.13798 -91.77088 1355.0
101.77077 -91.77088 1355.0
109.40355 -91.77088 1355.0
117.03634 -91.77088 1355.0
125.12926 -92.10952 1360.0
132.30202 -91.77088 1355.0
140.45117 -92.10952 1360.0
148.11212 -92.10952 1360.0
156.4603 -92.515884 1366.0
164.15515 -92.515884 1366.0
172.47893 -92.85452 1371.0
180.20184 -92.85452 1371.0
187.92476 -92.85452 1371.0
195.64767 -92.85452 1371.0
203.3707 -92.85452 1371.0
211.09361 -92.85452 1371.0
218.81653 -92.85452 1371.0
226.53944 -92.85452 1371.0
235.11671 -93.19315 1376.0
242.86789 -93.19315 1376.0
250.61897 -93.19315 1376.0
258.37006 -93.19315 1376.0
265.1541 -92.85452 1371.0
272.87704 -92.85452 1371.0
281.6234 -93.19315 1376.0
289.37448 -93.19315 1376.0
297.12555 -93.19315 1376.0
303.7688 -92.85452 1371.0
312.62772 -93.19315 1376.0
320.3789 -93.19315 1376.0
329.5608 -93.599525 1382.0
337.34567 -93.599525 1382.0
345.13055 -93.599525 1382.0
352.9154 -93.599525 1382.0
362.2664 -94.00589 1388.0
370.08508 -94.00589 1388.0
379.26508 -94.34453 1393.0
387.1119 -94.34453 1393.0
394.9588 -94.34453 1393.0
402.8057 -94.34453 1393.0
412.42133 -94.75089 1399.0
420.302 -94.75089 1399.0
428.18265 -94.75089 1399.0
436.0633 -94.75089 1399.0
443.944 -94.75089 1399.0
451.82465 -94.75089 1399.0
461.34827 -95.08953 1404.0
469.25708 -95.08953 1404.0
479.20508 -95.495895 1410.0
487.14777 -95.495895 1410.0
497.19714 -95.90226 1416.0
505.17355 -95.90226 1416.0
513.14996 -95.90226 1416.0
518.9182 -95.495895 1410.0
526.8609 -95.495895 1410.0
534.8035 -95.495895 1410.0
542.7461 -95.495895 1410.0
553.03204 -95.90226 1416.0
558.63135 -95.495895 1410.0
568.985 -95.90226 1416.0
576.96136 -95.90226 1416.0
587.4163 -96.30863 1422.0
597.9389 -96.715 1428.0
603.4367 -96.30863 1422.0
611.4471 -96.30863 1422.0
619.4573 -96.30863 1422.0
627.46747 -96.30863 1422.0
638.159 -96.715 1428.0
646.203 -96.715 1428.0
654.24713 -96.715 1428.0
665.07385 -97.12135 1434.0
670.3351 -96.715 1428.0
681.22943 -97.12135 1434.0
686.4231 -96.715 1428.0
697.38513 -97.12135 1434.0
705.46295 -97.12135 1434.0
710.55524 -96.715 1428.0
721.6185 -97.12135 1434.0
729.69635 -97.12135 1434.0
737.77423 -97.12135 1434.0
745.85205 -97.12135 1434.0
753.9298 -97.12135 1434.0
762.0076 -97.12135 1434.0
733.5681 -92.515884 1366.0
738.0071 -92.10952 1360.0
734.15405 -90.68724 1339.0
736.15753 -90.009964 1329.0
746.4416 -90.3486 1334.0
753.9561 -90.3486 1334.0
755.7625 -89.671326 1324.0
763.22064 -89.671326 1324.0
773.58923 -90.009964 1329.0
781.07556 -90.009964 1329.0
791.5286 -90.3486 1334.0
793.0534 -89.671326 1324.0
-747.4706 -93.91561 1280.0
-745.4652 -94.57596 1289.0
-741.0677 -94.94282 1294.0
-733.7785 -94.94282 1294.0
-723.68207 -94.57596 1289.0
-716.42114 -94.57596 1289.0
-709.1601 -94.57596 1289.0
-701.89905 -94.57596 1289.0
-694.63806 -94.57596 1289.0
-690.0433 -94.94282 1294.0
-682.7542 -94.94282 1294.0
-672.8549 -94.57596 1289.0
-668.1758 -94.94282 1294.0
-660.8866 -94.94282 1294.0
-653.59735 -94.94282 1294.0
-643.8109 -94.57596 1289.0
-641.48816 -95.30967 1299.0
-639.0528 -96.04339 1309.0
-629.2663 -95.67653 1304.0
-621.9207 -95.67653 1304.0
-612.21875 -95.30967 1299.0
-609.55804 -96.04339 1309.0
-602.1844 -96.04339 1309.0
-594.81067 -96.04339 1309.0
-587.437 -96.04339 1309.0
-582.279 -96.41025 1314.0
-572.68964 -96.04339 1309.0
-565.3159 -96.04339 1309.0
-557.94226 -96.04339 1309.0
-552.6716 -96.41025 1314.0
-545.2697 -96.41025 1314.0
-539.91455 -96.7771 1319.0
-530.466 -96.41025 1314.0
-525.05457 -96.7771 1319.0
-515.6623 -96.41025 1314.0
-512.12854 -97.14396 1324.0
-502.76447 -96.7771 1319.0
-495.33444 -96.7771 1319.0
-486.05493 -96.41025 1314.0
-478.65305 -96.41025 1314.0
-471.25122 -96.41025 1314.0
-463.84933 -96.41025 1314.0
-458.18436 -96.7771 1319.0
-450.75436 -96.7771 1319.0
-443.32434 -96.7771 1319.0
-437.5467 -97.14396 1324.0
-430.0885 -97.14396 1324.0
-422.6303 -97.14396 1324.0
-413.60428 -96.7771 1319.0
-406.17426 -96.7771 1319.0
-398.74423 -96.7771 1319.0
-391.3142 -96.7771 1319.0
-383.88422 -96.7771 1319.0
-377.88126 -97.14396 1324.0
-370.42303 -97.14396 1324.0
-364.33557 -97.51082 1329.0
-356.8492 -97.51082 1329.0
-349.36288 -97.51082 1329.0
-343.16278 -97.87768 1334.0
-334.39017 -97.51082 1329.0
-325.67395 -97.14396 1324.0
-319.41748 -97.51082 1329.0
-311.93115 -97.51082 1329.0
-304.44482 -97.51082 1329.0
-296.95844 -97.51082 1329.0
-290.56116 -97.87768 1334.0
-283.04663 -97.87768 1334.0
-181.55379 -64.493614 879.0
-176.2005 -64.34687 877.0
-169.89334 -63.833267 870.0
-162.90646 -63.026184 859.0
-156.96355 -62.585953 853.0
-151.8018 -62.43921 851.0
-146.14433 -62.072353 846.0
-141.04451 -61.92561 844.0
-136.2902 -61.92561 844.0
-131.22418 -61.77887 842.0
-126.180725 -61.632122 840.0
-121.44896 -61.632122 840.0
-116.71716 -61.632122 840.0
-111.985405 -61.632122 840.0
-107.25361 -61.632122 840.0
-102.27774 -61.48538 838.0
-97.32441 -61.33864 836.0
-92.61515 -61.33864 836.0
-63.860203 -65.66756 895.0
2.5141876 -98.24454 1339.0
10.094497 -98.61139 1344.0
17.665321 -98.61139 1344.0
25.236145 -98.61139 1344.0
32.80697 -98.61139 1344.0
40.377792 -98.61139 1344.0
47.948715 -98.61139 1344.0
55.51954 -98.61139 1344.0
63.090363 -98.61139 1344.0
70.97664 -99.05163 1350.0
78.58126 -99.05163 1350.0
86.18598 -99.05163 1350.0
93.7906 -99.05163 1350.0
101.395226 -99.05163 1350.0
108.99985 -99.05163 1350.0
117.03634 -99.41848 1355.0
124.66922 -99.41848 1355.0
132.30202 -99.41848 1355.0
140.45117 -99.78534 1360.0
148.11212 -99.78534 1360.0
156.4603 -100.22557 1366.0
164.15515 -100.22557 1366.0
171.84991 -100.22557 1366.0
179.54466 -100.22557 1366.0
187.23941 -100.22557 1366.0
195.64767 -100.59243 1371.0
203.3707 -100.59243 1371.0
211.86346 -100.95929 1376.0
218.81653 -100.59243 1371.0
226.53944 -100.59243 1371.0
234.26236 -100.59243 1371.0
241.98538 -100.59243 1371.0
249.7083 -100.59243 1371.0
257.4312 -100.59243 1371.0
264.1871 -100.22557 1366.0
272.87704 -100.59243 1371.0
281.6234 -100.95929 1376.0
289.37448 -100.95929 1376.0
297.12555 -100.95929 1376.0
303.7688 -100.59243 1371.0
311.49173 -100.59243 1371.0
319.21475 -100.59243 1371.0
329.5608 -101.39951 1382.0
337.34567 -101.39951 1382.0
346.62894 -101.839745 1388.0
352.9154 -101.39951 1382.0
360.7004 -101.39951 1382.0
370.08508 -101.839745 1388.0
377.90375 -101.839745 1388.0
387.1119 -102.206604 1393.0
393.54114 -101.839745 1388.0
402.8057 -102.206604 1393.0
410.65256 -102.206604 1393.0
418.4994 -102.206604 1393.0
428.18265 -102.646835 1399.0
436.0633 -102.646835 1399.0
443.944 -102.646835 1399.0
453.43945 -103.013695 1404.0
461.34827 -103.013695 1404.0
471.26245 -103.45392 1410.0
479.20508 -103.45392 1410.0
487.14777 -103.45392 1410.0
497.19714 -103.89415 1416.0
505.17355 -103.89415 1416.0
513.14996 -103.89415 1416.0
521.12634 -103.89415 1416.0
526.8609 -103.45392 1410.0
534.8035 -103.45392 1410.0
545.05566 -103.89415 1416.0
555.3754 -104.33437 1422.0
558.63135 -103.45392 1410.0
568.985 -103.89415 1416.0
576.96136 -103.89415 1416.0
589.8949 -104.774605 1428.0
597.9389 -104.774605 1428.0
605.98285 -104.774605 1428.0
614.02704 -104.774605 1428.0
622.071 -104.774605 1428.0
630.115 -104.774605 1428.0
640.84033 -105.21484 1434.0
654.24713 -104.774605 1428.0
665.07385 -105.21484 1434.0
686.4231 -104.774605 1428.0
697.38513 -105.21484 1434.0
702.5112 -104.774605 1428.0
713.5407 -105.21484 1434.0
721.6185 -105.21484 1434.0
729.69635 -105.21484 1434.0
737.77423 -105.21484 1434.0
745.85205 -105.21484 1434.0
757.08435 -105.65507 1440.0
724.97577 -99.05163 1350.0
732.58057 -99.05163 1350.0
736.89545 -98.61139 1344.0
741.6967 -98.24454 1339.0
749.2394 -98.24454 1339.0
753.9561 -97.87768 1334.0
761.47064 -97.87768 1334.0
771.86743 -98.24454 1339.0
782.3205 -98.61139 1344.0
793.41766 -99.05163 1350.0
794.4954 -98.24454 1339.0
790.0585 -96.7771 1319.0
-703.24725 -96.082855 1216.0
-741.0677 -102.24606 1294.0
-730.9432 -101.85099 1289.0
-720.87494 -101.45591 1284.0
-711.41895 -101.139854 1280.0
-706.40924 -101.45591 1284.0
-704.6217 -102.24606 1294.0
-697.3325 -102.24606 1294.0
-680.116 -101.85099 1289.0
-672.8549 -101.85099 1289.0
-668.1758 -102.24606 1294.0
-663.44025 -102.64114 1299.0
-653.59735 -102.24606 1294.0
-646.3082 -102.24606 1294.0
-641.48816 -102.64114 1299.0
-624.30536 -103.4313 1309.0
-612.21875 -102.64114 1299.0
-609.55804 -103.4313 1309.0
-602.1844 -103.4313 1309.0
-597.0827 -103.82638 1314.0
-589.68085 -103.82638 1314.0
-580.0633 -103.4313 1309.0
-572.68964 -103.4313 1309.0
-565.3159 -103.4313 1309.0
-560.0734 -103.82638 1314.0
-552.6716 -103.82638 1314.0
-543.1949 -103.4313 1309.0
-537.86786 -103.82638 1314.0
-528.4475 -103.4313 1309.0
-523.0642 -103.82638 1314.0
-515.6623 -103.82638 1314.0
-510.1945 -104.22146 1319.0
-502.76447 -104.22146 1319.0
-495.33444 -104.22146 1319.0
-486.05493 -103.82638 1314.0
-480.47443 -104.22146 1319.0
-467.66483 -103.036224 1304.0
-450.75436 -104.22146 1319.0
-443.32434 -104.22146 1319.0
-437.5467 -104.61653 1324.0
-430.0885 -104.61653 1324.0
-422.6303 -104.61653 1324.0
-413.60428 -104.22146 1319.0
-404.63455 -103.82638 1314.0
-389.83084 -103.82638 1314.0
-382.429 -103.82638 1314.0
-376.4542 -104.22146 1319.0
-370.42303 -104.61653 1324.0
-362.96487 -104.61653 1324.0
-355.50665 -104.61653 1324.0
-348.0485 -104.61653 1324.0
-341.87656 -105.01161 1329.0
-334.39017 -105.01161 1329.0
-326.90384 -105.01161 1329.0
-319.41748 -105.01161 1329.0
-313.1047 -105.406685 1334.0
-288.38306 -104.61653 1324.0
-280.92484 -104.61653 1324.0
-181.55379 -69.45463 879.0
-175.59776 -69.05955 874.0
-168.52637 -68.190384 863.0
-162.90646 -67.87433 859.0
-156.59554 -67.242195 851.0
-151.44504 -67.08417 849.0
-145.79884 -66.689095 844.0
-140.71028 -66.53106 842.0
-135.96724 -66.53106 842.0
-130.91249 -66.373024 840.0
-125.880295 -66.215 838.0
-121.1598 -66.215 838.0
-116.43927 -66.215 838.0
-111.718765 -66.215 838.0
-106.99824 -66.215 838.0
-102.27774 -66.215 838.0
-97.557236 -66.215 838.0
-92.836716 -66.215 838.0
-88.11621 -66.215 838.0
10.056943 -105.801765 1339.0
17.599602 -105.801765 1339.0
25.048376 -105.406685 1334.0
32.80697 -106.196846 1344.0
40.377792 -106.196846 1344.0
48.16277 -106.67094 1350.0
55.76739 -106.67094 1350.0
63.372017 -106.67094 1350.0
70.39831 -105.801765 1339.0
85.48373 -105.801765 1339.0
93.02638 -105.801765 1339.0
100.569046 -105.801765 1339.0
108.99985 -106.67094 1350.0
117.03634 -107.06602 1355.0
124.66922 -107.06602 1355.0
157.03299 -108.33027 1371.0
164.75601 -108.33027 1371.0
171.84991 -107.93519 1366.0
180.20184 -108.33027 1371.0
187.92476 -108.33027 1371.0
196.3612 -108.725334 1376.0
211.86346 -108.725334 1376.0
226.53944 -108.33027 1371.0
230.6741 -106.67094 1350.0
239.16133 -107.06602 1355.0
243.87994 -105.801765 1339.0
285.10275 -110.0686 1393.0
291.8981 -109.67352 1388.0
303.7688 -108.33027 1371.0
313.9909 -109.19943 1382.0
321.7759 -109.19943 1382.0
330.9916 -109.67352 1388.0
338.81027 -109.67352 1388.0
347.8776 -110.0686 1393.0
355.7245 -110.0686 1393.0
363.57138 -110.0686 1393.0
370.08508 -109.67352 1388.0
377.90375 -109.67352 1388.0
385.72244 -109.67352 1388.0
393.54114 -109.67352 1388.0
401.35986 -109.67352 1388.0
410.65256 -110.0686 1393.0
418.4994 -110.0686 1393.0
429.71295 -110.937775 1404.0
437.62177 -110.937775 1404.0
443.944 -110.542694 1399.0
453.43945 -110.937775 1404.0
463.31985 -111.41187 1410.0
592.3734 -113.30824 1434.0
602.96356 -113.78233 1440.0
622.071 -112.834145 1428.0
738.8557 -114.730515 1452.0
753.9561 -105.406685 1334.0
770.60376 -106.67094 1350.0
781.09064 -107.06602 1355.0
791.63385 -107.46109 1360.0
799.2948 -107.46109 1360.0
-710.0971 -102.945946 1216.0
-706.1389 -103.36925 1221.0
-706.70593 -104.46982 1234.0
-704.85834 -105.23175 1243.0
-702.9093 -105.99369 1252.0
-698.0799 -106.33233 1256.0
-704.2086 -108.36416 1280.0
-699.1764 -108.7028 1284.0
-668.1758 -109.549385 1294.0
-641.3136 -108.7028 1284.0
-632.10535 -108.36416 1280.0
-560.0734 -111.24258 1314.0
-379.5186 -110.39598 1304.0
-370.74603 -109.97269 1299.0
-181.14069 -74.246376 877.0
-175.19594 -73.82308 872.0
-168.52637 -73.06114 863.0
-162.52716 -72.55319 857.0
-156.59554 -72.045235 851.0
-151.44504 -71.875916 849.0
-145.79884 -71.452614 844.0
-140.71028 -71.283295 842.0
-135.96724 -71.283295 842.0
-130.6008 -70.94466 838.0
-125.880295 -70.94466 838.0
-121.1598 -70.94466 838.0
-116.16137 -70.77534 836.0
-111.718765 -70.94466 838.0
-106.4875 -70.60602 834.0
-102.27774 -70.94466 838.0
-97.557236 -70.94466 838.0
-93.05827 -71.113976 840.0
-88.11621 -70.94466 838.0
-83.59472 -71.113976 840.0
-78.675186 -70.94466 838.0
