ply
format ascii 1.0
element vertex 1734
property float x
property float y
property float z
end_header
424.50806 414.4929 1440.0
432.61963 414.4929 1440.0
440.7312 414.4929 1440.0
448.84283 414.4929 1440.0
456.95453 414.4929 1440.0
467.0039 416.21994 1446.0
473.17773 414.4929 1440.0
481.2893 414.4929 1440.0
489.4009 414.4929 1440.0
497.5126 414.4929 1440.0
505.62424 414.4929 1440.0
518.01697 417.947 1452.0
524.0218 416.21994 1446.0
532.1672 416.21994 1446.0
540.3127 416.21994 1446.0
550.7338 417.947 1452.0
554.2939 414.4929 1440.0
562.40546 414.4929 1440.0
570.5171 414.4929 1440.0
578.6288 414.4929 1440.0
586.7404 414.4929 1440.0
597.33057 416.21994 1446.0
607.9883 417.947 1452.0
616.1675 417.947 1452.0
626.92676 419.67404 1458.0
632.526 417.947 1452.0
640.70514 417.947 1452.0
648.88434 417.947 1452.0
657.0636 417.947 1452.0
665.2428 417.947 1452.0
676.2048 419.67404 1458.0
684.4178 419.67404 1458.0
692.63074 419.67404 1458.0
700.84375 419.67404 1458.0
709.0569 419.67404 1458.0
717.26984 419.67404 1458.0
728.4684 421.4011 1464.0
736.71515 421.4011 1464.0
744.962 421.4011 1464.0
756.2958 423.12817 1470.0
764.57635 423.12817 1470.0
769.7024 421.4011 1464.0
777.9492 421.4011 1464.0
789.4181 423.12817 1470.0
804.7533 426.8701 1483.0
809.81744 425.14304 1477.0
814.26 423.12817 1470.0
826.4574 425.14304 1477.0
834.77747 425.14304 1477.0
846.5225 426.8701 1483.0
858.335 428.59717 1489.0
863.2301 426.8701 1483.0
875.1102 428.59717 1489.0
883.49786 428.59717 1489.0
891.88556 428.59717 1489.0
-767.3253 370.8086 1314.0
-759.9234 370.8086 1314.0
-749.6581 369.3976 1309.0
-739.4491 367.9866 1304.0
-734.91064 369.3976 1309.0
-727.53705 369.3976 1309.0
-722.9141 370.8086 1314.0
-712.7897 369.3976 1309.0
-702.7215 367.9866 1304.0
-695.3759 367.9866 1304.0
-688.0305 367.9866 1304.0
-685.9049 370.8086 1314.0
-681.0849 372.21957 1319.0
-676.20856 373.63058 1324.0
-668.7503 373.63058 1324.0
-661.2922 373.63058 1324.0
-653.8339 373.63058 1324.0
-646.3758 373.63058 1324.0
-641.33044 375.04156 1329.0
-633.84406 375.04156 1329.0
-624.0013 373.63058 1324.0
-616.543 373.63058 1324.0
-611.3851 375.04156 1329.0
-603.8987 375.04156 1329.0
-596.41235 375.04156 1329.0
-588.926 375.04156 1329.0
-581.43964 375.04156 1329.0
-576.1127 376.45255 1334.0
-568.59814 376.45255 1334.0
-561.0836 376.45255 1334.0
-555.644 377.86356 1339.0
-548.10126 377.86356 1339.0
-540.5586 377.86356 1339.0
-533.0159 377.86356 1339.0
-525.47327 377.86356 1339.0
-519.8646 379.27454 1344.0
-512.2937 379.27454 1344.0
-500.96753 376.45255 1334.0
-495.30255 377.86356 1339.0
-487.75986 377.86356 1339.0
-480.2172 377.86356 1339.0
-470.90945 376.45255 1334.0
-465.1318 377.86356 1339.0
-457.58914 377.86356 1339.0
-450.04645 377.86356 1339.0
-442.50378 377.86356 1339.0
-434.9611 377.86356 1339.0
-427.41843 377.86356 1339.0
-419.87576 377.86356 1339.0
-412.33307 377.86356 1339.0
-406.30194 379.27454 1344.0
-397.2477 377.86356 1339.0
-391.16025 379.27454 1344.0
-383.58942 379.27454 1344.0
-377.6972 380.96774 1350.0
-368.44772 379.27454 1344.0
-360.87686 379.27454 1344.0
-354.8833 380.96774 1350.0
-347.2787 380.96774 1350.0
-339.674 380.96774 1350.0
-332.06937 380.96774 1350.0
-323.02264 379.27454 1344.0
-318.03363 382.37872 1355.0
-309.25546 380.96774 1350.0
-197.99109 256.51828 909.0
-193.9315 257.92926 914.0
-187.33707 255.95387 907.0
-182.62971 256.51828 909.0
-177.11868 255.95387 907.0
-171.44055 255.10728 904.0
-165.98022 254.5429 902.0
-160.8992 254.5429 902.0
-155.81818 254.5429 902.0
-150.73714 254.5429 902.0
-145.17168 253.69629 899.0
-140.10753 253.69629 899.0
-135.49406 254.5429 902.0
-129.97931 253.69629 899.0
-124.91515 253.69629 899.0
-118.91782 251.7209 892.0
-77.13174 246.64133 874.0
-72.20841 246.64133 874.0
-67.285126 246.64133 874.0
-62.361805 246.64133 874.0
-57.635674 247.48793 877.0
-52.695488 247.48793 877.0
-47.755264 247.48793 877.0
-5.167421 388.3049 1376.0
2.583661 388.3049 1376.0
10.334842 388.3049 1376.0
18.164787 389.99808 1382.0
25.837006 388.3049 1376.0
33.734547 389.99808 1382.0
41.33917 388.3049 1376.0
49.518463 391.69128 1388.0
56.841434 388.3049 1376.0
64.87417 389.99808 1382.0
72.9745 391.69128 1388.0
80.793175 391.69128 1388.0
88.61195 391.69128 1388.0
96.43063 391.69128 1388.0
104.62485 393.10226 1393.0
112.471695 393.10226 1393.0
120.318535 393.10226 1393.0
128.16548 393.10226 1393.0
136.01233 393.10226 1393.0
143.85918 393.10226 1393.0
152.35945 394.79544 1399.0
159.55286 393.10226 1393.0
168.12085 394.79544 1399.0
176.00146 394.79544 1399.0
184.5393 396.20645 1404.0
192.44812 396.20645 1404.0
200.35692 396.20645 1404.0
208.26584 396.20645 1404.0
216.17464 396.20645 1404.0
225.04108 397.89963 1410.0
233.9751 399.59283 1416.0
241.95149 399.59283 1416.0
249.92801 399.59283 1416.0
257.90442 399.59283 1416.0
265.8808 399.59283 1416.0
273.8572 399.59283 1416.0
281.83362 399.59283 1416.0
291.03812 401.286 1422.0
299.04834 401.286 1422.0
307.05853 401.286 1422.0
315.06876 401.286 1422.0
323.07895 401.286 1422.0
331.08926 401.286 1422.0
340.53027 402.97922 1428.0
348.57425 402.97922 1428.0
356.61826 402.97922 1428.0
364.66223 402.97922 1428.0
372.7064 402.97922 1428.0
382.35016 404.6724 1434.0
390.42795 404.6724 1434.0
398.50577 404.6724 1434.0
406.58356 404.6724 1434.0
414.66144 404.6724 1434.0
424.50806 406.36557 1440.0
432.61963 406.36557 1440.0
440.7312 406.36557 1440.0
448.84283 406.36557 1440.0
458.8585 408.05878 1446.0
467.0039 408.05878 1446.0
475.1493 408.05878 1446.0
483.29468 408.05878 1446.0
491.4401 408.05878 1446.0
499.58557 408.05878 1446.0
505.62424 406.36557 1440.0
513.73584 406.36557 1440.0
524.0218 408.05878 1446.0
532.1672 408.05878 1446.0
540.3127 408.05878 1446.0
548.45807 408.05878 1446.0
554.2939 406.36557 1440.0
562.40546 406.36557 1440.0
570.5171 406.36557 1440.0
578.6288 406.36557 1440.0
589.1851 408.05878 1446.0
597.33057 408.05878 1446.0
607.9883 409.75195 1452.0
618.7136 411.44516 1458.0
626.92676 411.44516 1458.0
635.1397 411.44516 1458.0
640.70514 409.75195 1452.0
651.5657 411.44516 1458.0
657.0636 409.75195 1452.0
665.2428 409.75195 1452.0
676.2048 411.44516 1458.0
684.4178 411.44516 1458.0
692.63074 411.44516 1458.0
700.84375 411.44516 1458.0
709.0569 411.44516 1458.0
717.26984 411.44516 1458.0
728.4684 413.13834 1464.0
736.71515 413.13834 1464.0
744.962 413.13834 1464.0
753.2088 413.13834 1464.0
764.57635 414.83154 1470.0
769.7024 413.13834 1464.0
777.9492 413.13834 1464.0
789.4181 414.83154 1470.0
804.7533 418.50012 1483.0
809.81744 416.80692 1477.0
818.1374 416.80692 1477.0
826.4574 416.80692 1477.0
838.1686 418.50012 1483.0
846.5225 418.50012 1483.0
854.87634 418.50012 1483.0
863.2301 418.50012 1483.0
871.5839 418.50012 1483.0
883.49786 420.1933 1489.0
891.88556 420.1933 1489.0
-761.4857 360.6269 1304.0
-754.14014 360.6269 1304.0
-746.7946 360.6269 1304.0
-739.4491 360.6269 1304.0
-734.91064 362.00964 1309.0
-727.53705 362.00964 1309.0
-720.1633 362.00964 1309.0
-712.7897 362.00964 1309.0
-705.416 362.00964 1309.0
-698.04224 362.00964 1309.0
-690.66864 362.00964 1309.0
-683.2949 362.00964 1309.0
-681.0849 364.7752 1319.0
-676.20856 366.15796 1324.0
-668.7503 366.15796 1324.0
-658.79486 364.7752 1319.0
-653.8339 366.15796 1324.0
-646.3758 366.15796 1324.0
-638.9176 366.15796 1324.0
-633.84406 367.54074 1329.0
-624.0013 366.15796 1324.0
-618.8714 367.54074 1329.0
-611.3851 367.54074 1329.0
-603.8987 367.54074 1329.0
-596.41235 367.54074 1329.0
-588.926 367.54074 1329.0
-581.43964 367.54074 1329.0
-576.1127 368.92352 1334.0
-568.59814 368.92352 1334.0
-561.0836 368.92352 1334.0
-553.5691 368.92352 1334.0
-546.05457 368.92352 1334.0
-540.5586 370.30627 1339.0
-533.0159 370.30627 1339.0
-525.47327 370.30627 1339.0
-519.8646 371.68906 1344.0
-512.2937 371.68906 1344.0
-502.8452 370.30627 1339.0
-495.30255 370.30627 1339.0
-487.75986 370.30627 1339.0
-480.2172 370.30627 1339.0
-472.67447 370.30627 1339.0
-465.1318 370.30627 1339.0
-457.58914 370.30627 1339.0
-450.04645 370.30627 1339.0
-442.50378 370.30627 1339.0
-434.9611 370.30627 1339.0
-427.41843 370.30627 1339.0
-419.87576 370.30627 1339.0
-412.33307 370.30627 1339.0
-406.30194 371.68906 1344.0
-398.73108 371.68906 1344.0
-391.16025 371.68906 1344.0
-383.58942 371.68906 1344.0
-377.6972 373.3484 1350.0
-368.44772 371.68906 1344.0
-360.87686 371.68906 1344.0
-354.8833 373.3484 1350.0
-347.2787 373.3484 1350.0
-339.674 373.3484 1350.0
-332.06937 373.3484 1350.0
-324.4647 373.3484 1350.0
-318.03363 374.73114 1355.0
-309.25546 373.3484 1350.0
-193.29495 251.94101 911.0
-188.16325 251.94101 911.0
-182.62971 251.38791 909.0
-177.50923 251.38791 909.0
-172.00949 250.83482 907.0
-166.34824 250.00514 904.0
-161.25597 250.00514 904.0
-156.16368 250.00514 904.0
-151.07137 250.00514 904.0
-145.9791 250.00514 904.0
-140.57507 249.45204 902.0
-136.54556 251.38791 909.0
-67.51608 242.5382 877.0
-62.575863 242.5382 877.0
-57.767113 243.09128 879.0
-52.815662 243.09128 879.0
-47.864174 243.09128 879.0
-5.167421 380.5388 1376.0
2.583661 380.5388 1376.0
10.334842 380.5388 1376.0
18.164787 382.19812 1382.0
25.949667 382.19812 1382.0
33.734547 382.19812 1382.0
41.51943 382.19812 1382.0
49.304405 382.19812 1382.0
57.089287 382.19812 1382.0
64.87417 382.19812 1382.0
72.9745 383.85745 1388.0
80.443924 382.19812 1382.0
88.22891 382.19812 1382.0
96.43063 383.85745 1388.0
104.24931 383.85745 1388.0
112.06799 383.85745 1388.0
120.318535 385.24023 1393.0
128.16548 385.24023 1393.0
136.01233 385.24023 1393.0
143.85918 385.24023 1393.0
152.35945 386.89954 1399.0
159.55286 385.24023 1393.0
168.12085 386.89954 1399.0
176.00146 386.89954 1399.0
184.5393 388.28232 1404.0
192.44812 388.28232 1404.0
199.6434 386.89954 1399.0
207.52415 386.89954 1399.0
216.17464 388.28232 1404.0
225.04108 389.94165 1410.0
233.9751 391.60095 1416.0
241.95149 391.60095 1416.0
249.92801 391.60095 1416.0
257.90442 391.60095 1416.0
265.8808 391.60095 1416.0
273.8572 391.60095 1416.0
281.83362 391.60095 1416.0
289.81012 391.60095 1416.0
299.04834 393.2603 1422.0
307.05853 393.2603 1422.0
315.06876 393.2603 1422.0
323.07895 393.2603 1422.0
331.08926 393.2603 1422.0
340.53027 394.91962 1428.0
348.57425 394.91962 1428.0
356.61826 394.91962 1428.0
364.66223 394.91962 1428.0
372.7064 394.91962 1428.0
382.35016 396.57895 1434.0
388.79437 394.91962 1428.0
398.50577 396.57895 1434.0
406.58356 396.57895 1434.0
414.66144 396.57895 1434.0
424.50806 398.23828 1440.0
432.61963 398.23828 1440.0
440.7312 398.23828 1440.0
448.84283 398.23828 1440.0
456.95453 398.23828 1440.0
467.0039 399.89758 1446.0
475.1493 399.89758 1446.0
483.29468 399.89758 1446.0
491.4401 399.89758 1446.0
497.5126 398.23828 1440.0
505.62424 398.23828 1440.0
513.73584 398.23828 1440.0
521.8474 398.23828 1440.0
532.1672 399.89758 1446.0
540.3127 399.89758 1446.0
548.45807 399.89758 1446.0
554.2939 398.23828 1440.0
564.74884 399.89758 1446.0
570.5171 398.23828 1440.0
578.6288 398.23828 1440.0
589.1851 399.89758 1446.0
597.33057 399.89758 1446.0
607.9883 401.55695 1452.0
618.7136 403.21625 1458.0
624.34674 401.55695 1452.0
635.1397 403.21625 1458.0
643.3527 403.21625 1458.0
651.5657 403.21625 1458.0
659.7787 403.21625 1458.0
667.9918 403.21625 1458.0
676.2048 403.21625 1458.0
684.4178 403.21625 1458.0
692.63074 403.21625 1458.0
700.84375 403.21625 1458.0
709.0569 403.21625 1458.0
717.26984 403.21625 1458.0
725.48285 403.21625 1458.0
736.71515 404.87558 1464.0
744.962 404.87558 1464.0
753.2088 404.87558 1464.0
764.57635 406.5349 1470.0
769.7024 404.87558 1464.0
777.9492 404.87558 1464.0
789.4181 406.5349 1470.0
801.4974 408.4708 1477.0
809.81744 408.4708 1477.0
818.1374 408.4708 1477.0
826.4574 408.4708 1477.0
838.1686 410.13013 1483.0
846.5225 410.13013 1483.0
854.87634 410.13013 1483.0
863.2301 410.13013 1483.0
871.5839 410.13013 1483.0
883.49786 411.78943 1489.0
891.88556 411.78943 1489.0
-764.4055 354.6217 1309.0
-754.14014 353.26715 1304.0
-743.93115 351.9126 1299.0
-736.6138 351.9126 1299.0
-732.1035 353.26715 1304.0
-727.53705 354.6217 1309.0
-714.6617 351.9126 1299.0
-712.7897 354.6217 1309.0
-708.1105 355.97626 1314.0
-703.3749 357.3308 1319.0
-693.3068 355.97626 1314.0
-685.9049 355.97626 1314.0
-678.50305 355.97626 1314.0
-673.65485 357.3308 1319.0
-666.2248 357.3308 1319.0
-658.79486 357.3308 1319.0
-651.3648 357.3308 1319.0
-643.9348 357.3308 1319.0
-638.9176 358.68536 1324.0
-631.45935 358.68536 1324.0
-624.0013 358.68536 1324.0
-621.1997 361.39447 1334.0
-613.68524 361.39447 1334.0
-606.1707 361.39447 1334.0
-594.1685 358.68536 1324.0
-586.7103 358.68536 1324.0
-583.62714 361.39447 1334.0
-576.1127 361.39447 1334.0
-570.7293 362.74902 1339.0
-561.0836 361.39447 1334.0
-553.5691 361.39447 1334.0
-546.05457 361.39447 1334.0
-538.5401 361.39447 1334.0
-531.0256 361.39447 1334.0
-525.47327 362.74902 1339.0
-517.9306 362.74902 1339.0
-512.2937 364.10358 1344.0
-502.8452 362.74902 1339.0
-493.45303 361.39447 1334.0
-487.75986 362.74902 1339.0
-480.2172 362.74902 1339.0
-474.4395 364.10358 1344.0
-465.1318 362.74902 1339.0
-457.58914 362.74902 1339.0
-450.04645 362.74902 1339.0
-442.50378 362.74902 1339.0
-436.5853 364.10358 1344.0
-427.41843 362.74902 1339.0
-419.87576 362.74902 1339.0
-412.33307 362.74902 1339.0
-404.7904 362.74902 1339.0
-397.2477 362.74902 1339.0
-389.70505 362.74902 1339.0
-383.58942 364.10358 1344.0
-376.01855 364.10358 1344.0
-368.44772 364.10358 1344.0
-360.87686 364.10358 1344.0
-354.8833 365.72906 1350.0
-347.2787 365.72906 1350.0
-338.16434 364.10358 1344.0
-332.06937 365.72906 1350.0
-324.4647 365.72906 1350.0
-316.86008 365.72906 1350.0
-310.40088 367.08362 1355.0
-192.8706 246.25755 909.0
-187.75015 246.25755 909.0
-182.62971 246.25755 909.0
-177.50923 246.25755 909.0
-172.3888 246.25755 909.0
-167.26831 246.25755 909.0
-162.14786 246.25755 909.0
-156.68192 245.71573 907.0
-151.07137 244.903 904.0
-147.10947 246.79938 911.0
-140.88678 244.903 904.0
-136.84601 246.79938 911.0
-20.759714 374.39816 1382.0
-12.918503 372.7727 1376.0
-5.167421 372.7727 1376.0
2.583661 372.7727 1376.0
10.334842 372.7727 1376.0
18.085924 372.7727 1376.0
25.837006 372.7727 1376.0
33.58809 372.7727 1376.0
41.33917 372.7727 1376.0
49.09035 372.7727 1376.0
57.089287 374.39816 1382.0
64.87417 374.39816 1382.0
72.65905 374.39816 1382.0
80.443924 374.39816 1382.0
88.22891 374.39816 1382.0
96.43063 376.02365 1388.0
104.24931 376.02365 1388.0
112.06799 376.02365 1388.0
120.318535 377.3782 1393.0
128.16548 377.3782 1393.0
136.01233 377.3782 1393.0
143.85918 377.3782 1393.0
152.35945 379.00363 1399.0
159.55286 377.3782 1393.0
168.12085 379.00363 1399.0
176.6305 380.3582 1404.0
185.32794 381.98367 1410.0
193.27055 381.98367 1410.0
200.35692 380.3582 1404.0
208.26584 380.3582 1404.0
216.17464 380.3582 1404.0
224.08345 380.3582 1404.0
232.98367 381.98367 1410.0
240.92628 381.98367 1410.0
248.86899 381.98367 1410.0
256.81158 381.98367 1410.0
265.8808 383.60913 1416.0
273.8572 383.60913 1416.0
281.83362 383.60913 1416.0
291.03812 385.2346 1422.0
299.04834 385.2346 1422.0
307.05853 385.2346 1422.0
313.73935 383.60913 1416.0
323.07895 385.2346 1422.0
331.08926 385.2346 1422.0
340.53027 386.86005 1428.0
347.10965 385.2346 1422.0
355.11987 385.2346 1422.0
364.66223 386.86005 1428.0
372.7064 386.86005 1428.0
380.75037 386.86005 1428.0
390.42795 388.4855 1434.0
398.50577 388.4855 1434.0
406.58356 388.4855 1434.0
414.66144 388.4855 1434.0
424.50806 390.111 1440.0
432.61963 390.111 1440.0
440.7312 390.111 1440.0
448.84283 390.111 1440.0
456.95453 390.111 1440.0
467.0039 391.73645 1446.0
475.1493 391.73645 1446.0
483.29468 391.73645 1446.0
491.4401 391.73645 1446.0
497.5126 390.111 1440.0
505.62424 390.111 1440.0
513.73584 390.111 1440.0
524.0218 391.73645 1446.0
532.1672 391.73645 1446.0
542.5546 393.36188 1452.0
548.45807 391.73645 1446.0
554.2939 390.111 1440.0
564.74884 391.73645 1446.0
570.5171 390.111 1440.0
581.03973 391.73645 1446.0
591.6299 393.36188 1452.0
597.33057 391.73645 1446.0
607.9883 393.36188 1452.0
618.7136 394.98737 1458.0
626.92676 394.98737 1458.0
635.1397 394.98737 1458.0
643.3527 394.98737 1458.0
651.5657 394.98737 1458.0
659.7787 394.98737 1458.0
670.7407 396.61282 1464.0
676.2048 394.98737 1458.0
684.4178 394.98737 1458.0
692.63074 394.98737 1458.0
700.84375 394.98737 1458.0
711.9748 396.61282 1464.0
720.22156 396.61282 1464.0
725.48285 394.98737 1458.0
733.6958 394.98737 1458.0
744.962 396.61282 1464.0
753.2088 396.61282 1464.0
764.57635 398.2383 1470.0
772.85693 398.2383 1470.0
781.1376 398.2383 1470.0
789.4181 398.2383 1470.0
801.4974 400.13464 1477.0
809.81744 400.13464 1477.0
818.1374 400.13464 1477.0
826.4574 400.13464 1477.0
834.77747 400.13464 1477.0
843.09753 400.13464 1477.0
851.4176 400.13464 1477.0
863.2301 401.76013 1483.0
871.5839 401.76013 1483.0
883.49786 403.3856 1489.0
891.88556 403.3856 1489.0
-761.4857 345.9074 1304.0
-754.14014 345.9074 1304.0
-743.93115 344.5811 1299.0
-739.4491 345.9074 1304.0
-732.1035 345.9074 1304.0
-727.53705 347.23373 1309.0
-717.41254 345.9074 1304.0
-715.5123 348.56006 1314.0
-710.80493 349.8864 1319.0
-706.0412 351.21274 1324.0
-695.94495 349.8864 1319.0
-688.5149 349.8864 1319.0
-678.50305 348.56006 1314.0
-673.65485 349.8864 1319.0
-666.2248 349.8864 1319.0
-658.79486 349.8864 1319.0
-651.3648 349.8864 1319.0
-643.9348 349.8864 1319.0
-638.9176 351.21274 1324.0
-631.45935 351.21274 1324.0
-626.3578 352.53906 1329.0
-616.543 351.21274 1324.0
-611.3851 352.53906 1329.0
-606.1707 353.8654 1334.0
-598.6562 353.8654 1334.0
-588.926 352.53906 1329.0
-583.62714 353.8654 1334.0
-576.1127 353.8654 1334.0
-570.7293 355.19174 1339.0
-561.0836 353.8654 1334.0
-553.5691 353.8654 1334.0
-546.05457 353.8654 1334.0
-540.5586 355.19174 1339.0
-531.0256 353.8654 1334.0
-527.4354 356.51807 1344.0
-519.8646 356.51807 1344.0
-512.2937 356.51807 1344.0
-500.96753 353.8654 1334.0
-493.45303 353.8654 1334.0
-487.75986 355.19174 1339.0
-480.2172 355.19174 1339.0
-474.4395 356.51807 1344.0
-465.1318 355.19174 1339.0
-457.58914 355.19174 1339.0
-450.04645 355.19174 1339.0
-442.50378 355.19174 1339.0
-436.5853 356.51807 1344.0
-427.41843 355.19174 1339.0
-419.87576 355.19174 1339.0
-413.87277 356.51807 1344.0
-406.30194 356.51807 1344.0
-397.2477 355.19174 1339.0
-389.70505 355.19174 1339.0
-383.58942 356.51807 1344.0
-376.01855 356.51807 1344.0
-368.44772 356.51807 1344.0
-360.87686 356.51807 1344.0
-354.8833 358.10965 1350.0
-345.7352 356.51807 1344.0
-338.16434 356.51807 1344.0
-332.06937 358.10965 1350.0
-325.6664 359.43597 1355.0
-318.03363 359.43597 1355.0
-311.54626 360.7623 1360.0
-192.8706 241.12717 909.0
-187.75015 241.12717 909.0
-182.62971 241.12717 909.0
-177.50923 241.12717 909.0
-172.3888 241.12717 909.0
-167.63632 241.6577 911.0
-163.39653 242.98402 916.0
-157.37292 241.6577 911.0
-151.57271 240.59663 907.0
-145.9791 239.80083 904.0
-141.35431 240.59663 907.0
-136.54556 241.12717 909.0
-151.33049 362.3539 1366.0
-143.63574 362.3539 1366.0
-135.34383 360.7623 1360.0
-128.7156 363.68024 1371.0
-121.433945 365.0066 1376.0
-114.17852 366.59818 1382.0
-90.42952 365.0066 1376.0
-82.378006 363.68024 1371.0
-75.25403 366.59818 1382.0
-51.67401 365.0066 1376.0
-43.763325 363.68024 1371.0
-36.1718 365.0066 1376.0
-28.544643 366.59818 1382.0
-20.759714 366.59818 1382.0
-12.918503 365.0066 1376.0
-5.167421 365.0066 1376.0
2.583661 365.0066 1376.0
10.334842 365.0066 1376.0
18.085924 365.0066 1376.0
25.837006 365.0066 1376.0
33.58809 365.0066 1376.0
41.33917 365.0066 1376.0
49.09035 365.0066 1376.0
57.089287 366.59818 1382.0
64.592514 365.0066 1376.0
72.3436 365.0066 1376.0
80.443924 366.59818 1382.0
88.22891 366.59818 1382.0
96.43063 368.18976 1388.0
104.24931 368.18976 1388.0
112.06799 368.18976 1388.0
120.318535 369.5161 1393.0
128.16548 369.5161 1393.0
136.01233 369.5161 1393.0
143.85918 369.5161 1393.0
152.35945 371.10773 1399.0
160.24008 371.10773 1399.0
168.12085 371.10773 1399.0
176.6305 372.43405 1404.0
185.32794 374.02563 1410.0
191.76277 371.10773 1399.0
199.6434 371.10773 1399.0
207.52415 371.10773 1399.0
216.17464 372.43405 1404.0
224.08345 372.43405 1404.0
231.99226 372.43405 1404.0
239.90106 372.43405 1404.0
248.86899 374.02563 1410.0
256.81158 374.02563 1410.0
265.8808 375.61725 1416.0
273.8572 375.61725 1416.0
281.83362 375.61725 1416.0
289.81012 375.61725 1416.0
299.04834 377.20883 1422.0
305.76294 375.61725 1416.0
313.73935 375.61725 1416.0
321.71573 375.61725 1416.0
331.08926 377.20883 1422.0
339.09943 377.20883 1422.0
347.10965 377.20883 1422.0
355.11987 377.20883 1422.0
364.66223 378.8004 1428.0
372.7064 378.8004 1428.0
382.35016 380.39203 1434.0
390.42795 380.39203 1434.0
398.50577 380.39203 1434.0
406.58356 380.39203 1434.0
414.66144 380.39203 1434.0
424.50806 381.9836 1440.0
432.61963 381.9836 1440.0
440.7312 381.9836 1440.0
448.84283 381.9836 1440.0
456.95453 381.9836 1440.0
467.0039 383.57523 1446.0
475.1493 383.57523 1446.0
483.29468 383.57523 1446.0
489.4009 381.9836 1440.0
499.58557 383.57523 1446.0
507.731 383.57523 1446.0
515.8764 383.57523 1446.0
526.19617 385.16684 1452.0
532.1672 383.57523 1446.0
540.3127 383.57523 1446.0
548.45807 383.57523 1446.0
554.2939 381.9836 1440.0
567.0922 385.16684 1452.0
575.2714 385.16684 1452.0
583.4507 385.16684 1452.0
591.6299 385.16684 1452.0
597.33057 383.57523 1446.0
607.9883 385.16684 1452.0
616.1675 385.16684 1452.0
626.92676 386.75842 1458.0
635.1397 386.75842 1458.0
640.70514 385.16684 1452.0
651.5657 386.75842 1458.0
659.7787 386.75842 1458.0
667.9918 386.75842 1458.0
676.2048 386.75842 1458.0
684.4178 386.75842 1458.0
692.63074 386.75842 1458.0
700.84375 386.75842 1458.0
711.9748 388.35004 1464.0
720.22156 388.35004 1464.0
725.48285 386.75842 1458.0
733.6958 386.75842 1458.0
744.962 388.35004 1464.0
753.2088 388.35004 1464.0
761.4556 388.35004 1464.0
769.7024 388.35004 1464.0
781.1376 389.94162 1470.0
789.4181 389.94162 1470.0
797.69885 389.94162 1470.0
805.9794 389.94162 1470.0
818.1374 391.7985 1477.0
826.4574 391.7985 1477.0
834.77747 391.7985 1477.0
843.09753 391.7985 1477.0
854.87634 393.39008 1483.0
863.2301 393.39008 1483.0
871.5839 393.39008 1483.0
879.93774 393.39008 1483.0
891.88556 394.9817 1489.0
-761.4857 338.54767 1304.0
-754.14014 338.54767 1304.0
-746.7946 338.54767 1304.0
-739.4491 338.54767 1304.0
-732.1035 338.54767 1304.0
-730.31604 341.1439 1314.0
-722.9141 341.1439 1314.0
-710.067 338.54767 1304.0
-708.1105 341.1439 1314.0
-703.3749 342.44202 1319.0
-695.94495 342.44202 1319.0
-688.5149 342.44202 1319.0
-681.0849 342.44202 1319.0
-671.1012 341.1439 1314.0
-666.2248 342.44202 1319.0
-661.2922 343.7401 1324.0
-653.8339 343.7401 1324.0
-643.9348 342.44202 1319.0
-638.9176 343.7401 1324.0
-631.45935 343.7401 1324.0
-626.3578 345.03824 1329.0
-621.1997 346.33636 1334.0
-611.3851 345.03824 1329.0
-606.1707 346.33636 1334.0
-596.41235 345.03824 1329.0
-588.926 345.03824 1329.0
-583.62714 346.33636 1334.0
-576.1127 346.33636 1334.0
-568.59814 346.33636 1334.0
-561.0836 346.33636 1334.0
-553.5691 346.33636 1334.0
-546.05457 346.33636 1334.0
-540.5586 347.63446 1339.0
-533.0159 347.63446 1339.0
-525.47327 347.63446 1339.0
-517.9306 347.63446 1339.0
-510.38788 347.63446 1339.0
-500.96753 346.33636 1334.0
-493.45303 346.33636 1334.0
-487.75986 347.63446 1339.0
-480.2172 347.63446 1339.0
-472.67447 347.63446 1339.0
-465.1318 347.63446 1339.0
-457.58914 347.63446 1339.0
-450.04645 347.63446 1339.0
-444.15616 348.9326 1344.0
-436.5853 348.9326 1344.0
-429.01447 348.9326 1344.0
-419.87576 347.63446 1339.0
-415.72043 350.49033 1350.0
-404.7904 347.63446 1339.0
-398.73108 348.9326 1344.0
-389.70505 347.63446 1339.0
-383.58942 348.9326 1344.0
-376.01855 348.9326 1344.0
-368.44772 348.9326 1344.0
-360.87686 348.9326 1344.0
-354.8833 350.49033 1350.0
-347.2787 350.49033 1350.0
-339.674 350.49033 1350.0
-333.29926 351.78842 1355.0
-324.4647 350.49033 1350.0
-318.03363 351.78842 1355.0
-309.25546 350.49033 1350.0
-182.22787 235.47755 907.0
-177.11868 235.47755 907.0
-172.00949 235.47755 907.0
-167.63632 236.51607 911.0
-163.93167 238.59303 919.0
-145.9791 234.6987 904.0
-140.88678 234.6987 904.0
-135.7945 234.6987 904.0
-130.41306 234.17944 902.0
-151.33049 354.6443 1366.0
-143.63574 354.6443 1366.0
-135.34383 353.08655 1360.0
-128.24619 354.6443 1366.0
-120.99269 355.94238 1371.0
-113.26972 355.94238 1371.0
-105.54681 355.94238 1371.0
-97.82384 355.94238 1371.0
-90.10092 355.94238 1371.0
-82.67844 357.2405 1376.0
-74.92731 357.2405 1376.0
-67.46914 358.79822 1382.0
-59.42509 357.2405 1376.0
-51.67401 357.2405 1376.0
-43.92293 357.2405 1376.0
-36.329525 358.79822 1382.0
-28.544643 358.79822 1382.0
-20.759714 358.79822 1382.0
-12.918503 357.2405 1376.0
-5.167421 357.2405 1376.0
2.583661 357.2405 1376.0
10.334842 357.2405 1376.0
18.085924 357.2405 1376.0
25.837006 357.2405 1376.0
33.58809 357.2405 1376.0
41.33917 357.2405 1376.0
49.09035 357.2405 1376.0
56.841434 357.2405 1376.0
64.592514 357.2405 1376.0
72.3436 357.2405 1376.0
80.443924 358.79822 1382.0
88.22891 358.79822 1382.0
96.01379 358.79822 1382.0
104.24931 360.35596 1388.0
112.06799 360.35596 1388.0
120.318535 361.65408 1393.0
128.16548 361.65408 1393.0
136.01233 361.65408 1393.0
143.85918 361.65408 1393.0
152.35945 363.21182 1399.0
160.24008 363.21182 1399.0
168.12085 363.21182 1399.0
176.6305 364.50992 1404.0
184.5393 364.50992 1404.0
192.44812 364.50992 1404.0
199.6434 363.21182 1399.0
207.52415 363.21182 1399.0
216.17464 364.50992 1404.0
224.08345 364.50992 1404.0
231.99226 364.50992 1404.0
239.90106 364.50992 1404.0
248.86899 366.06766 1410.0
257.90442 367.6254 1416.0
264.7542 366.06766 1410.0
272.6968 366.06766 1410.0
281.83362 367.6254 1416.0
289.81012 367.6254 1416.0
299.04834 369.1831 1422.0
307.05853 369.1831 1422.0
313.73935 367.6254 1416.0
321.71573 367.6254 1416.0
329.69226 367.6254 1416.0
339.09943 369.1831 1422.0
347.10965 369.1831 1422.0
355.11987 369.1831 1422.0
364.66223 370.74084 1428.0
372.7064 370.74084 1428.0
382.35016 372.29858 1434.0
390.42795 372.29858 1434.0
398.50577 372.29858 1434.0
406.58356 372.29858 1434.0
414.66144 372.29858 1434.0
424.50806 373.85632 1440.0
432.61963 373.85632 1440.0
440.7312 373.85632 1440.0
448.84283 373.85632 1440.0
456.95453 373.85632 1440.0
467.0039 375.41406 1446.0
475.1493 375.41406 1446.0
483.29468 375.41406 1446.0
491.4401 375.41406 1446.0
499.58557 375.41406 1446.0
507.731 375.41406 1446.0
515.8764 375.41406 1446.0
528.3705 378.52954 1458.0
534.3753 376.9718 1452.0
542.5546 376.9718 1452.0
550.7338 376.9718 1452.0
554.2939 373.85632 1440.0
562.40546 373.85632 1440.0
575.2714 376.9718 1452.0
581.03973 375.41406 1446.0
589.1851 375.41406 1446.0
597.33057 375.41406 1446.0
607.9883 376.9718 1452.0
616.1675 376.9718 1452.0
626.92676 378.52954 1458.0
632.526 376.9718 1452.0
640.70514 376.9718 1452.0
651.5657 378.52954 1458.0
657.0636 376.9718 1452.0
667.9918 378.52954 1458.0
676.2048 378.52954 1458.0
684.4178 378.52954 1458.0
692.63074 378.52954 1458.0
700.84375 378.52954 1458.0
709.0569 378.52954 1458.0
720.22156 380.08728 1464.0
728.4684 380.08728 1464.0
733.6958 378.52954 1458.0
741.9088 378.52954 1458.0
753.2088 380.08728 1464.0
761.4556 380.08728 1464.0
769.7024 380.08728 1464.0
777.9492 380.08728 1464.0
786.19604 380.08728 1464.0
794.4429 380.08728 1464.0
809.81744 383.46234 1477.0
818.1374 383.46234 1477.0
829.81476 385.02008 1483.0
838.1686 385.02008 1483.0
843.09753 383.46234 1477.0
854.87634 385.02008 1483.0
863.2301 385.02008 1483.0
871.5839 385.02008 1483.0
879.93774 385.02008 1483.0
888.2917 385.02008 1483.0
-755.64606 328.64816 1294.0
-751.2485 329.91806 1299.0
-746.7946 331.18796 1304.0
-742.2844 332.45786 1309.0
-734.91064 332.45786 1309.0
-730.31604 333.72772 1314.0
-720.1633 332.45786 1309.0
-715.5123 333.72772 1314.0
-708.1105 333.72772 1314.0
-703.3749 334.99762 1319.0
-695.94495 334.99762 1319.0
-688.5149 334.99762 1319.0
-683.6667 336.26752 1324.0
-673.65485 334.99762 1319.0
-666.2248 334.99762 1319.0
-661.2922 336.26752 1324.0
-656.3031 337.5374 1329.0
-648.8168 337.5374 1329.0
-638.9176 336.26752 1324.0
-631.45935 336.26752 1324.0
-624.0013 336.26752 1324.0
-618.8714 337.5374 1329.0
-613.68524 338.8073 1334.0
-608.44275 340.0772 1339.0
-598.6562 338.8073 1334.0
-588.926 337.5374 1329.0
-581.43964 337.5374 1329.0
-576.1127 338.8073 1334.0
-568.59814 338.8073 1334.0
-561.0836 338.8073 1334.0
-551.49426 337.5374 1329.0
-546.05457 338.8073 1334.0
-540.5586 340.0772 1339.0
-531.0256 338.8073 1334.0
-525.47327 340.0772 1339.0
-517.9306 340.0772 1339.0
-508.48203 338.8073 1334.0
-500.96753 338.8073 1334.0
-495.30255 340.0772 1339.0
-487.75986 340.0772 1339.0
-480.2172 340.0772 1339.0
-472.67447 340.0772 1339.0
-465.1318 340.0772 1339.0
-457.58914 340.0772 1339.0
-450.04645 340.0772 1339.0
-442.50378 340.0772 1339.0
-434.9611 340.0772 1339.0
-429.01447 341.34708 1344.0
-419.87576 340.0772 1339.0
-413.87277 341.34708 1344.0
-404.7904 340.0772 1339.0
-397.2477 340.0772 1339.0
-389.70505 340.0772 1339.0
-382.16238 340.0772 1339.0
-376.01855 341.34708 1344.0
-368.44772 341.34708 1344.0
-360.87686 341.34708 1344.0
-354.8833 342.87097 1350.0
-345.7352 341.34708 1344.0
-339.674 342.87097 1350.0
-332.06937 342.87097 1350.0
-324.4647 342.87097 1350.0
-318.03363 344.14084 1355.0
-310.40088 344.14084 1355.0
-302.768 344.14084 1355.0
-145.9791 229.59656 904.0
-140.88678 229.59656 904.0
-135.7945 229.59656 904.0
-130.41306 229.0886 902.0
-124.35936 227.31075 895.0
-150.66579 345.41074 1360.0
-143.00484 345.41074 1360.0
-135.94093 346.9346 1366.0
-128.24619 346.9346 1366.0
-120.55144 346.9346 1366.0
-112.85663 346.9346 1366.0
-105.54681 348.2045 1371.0
-97.82384 348.2045 1371.0
-90.10092 348.2045 1371.0
-82.378006 348.2045 1371.0
-74.65504 348.2045 1371.0
-67.17622 349.4744 1376.0
-59.42509 349.4744 1376.0
-51.67401 349.4744 1376.0
-43.92293 349.4744 1376.0
-36.1718 349.4744 1376.0
-28.420717 349.4744 1376.0
-20.759714 350.99826 1382.0
-12.918503 349.4744 1376.0
-5.167421 349.4744 1376.0
2.5742726 348.2045 1371.0
10.334842 349.4744 1376.0
18.164787 350.99826 1382.0
25.949667 350.99826 1382.0
33.58809 349.4744 1376.0
41.33917 349.4744 1376.0
49.09035 349.4744 1376.0
56.841434 349.4744 1376.0
64.592514 349.4744 1376.0
72.3436 349.4744 1376.0
80.793175 352.52216 1388.0
88.61195 352.52216 1388.0
96.01379 350.99826 1382.0
104.24931 352.52216 1388.0
112.06799 352.52216 1388.0
120.318535 353.79202 1393.0
127.70545 352.52216 1388.0
136.01233 353.79202 1393.0
143.85918 353.79202 1393.0
152.35945 355.31592 1399.0
160.24008 355.31592 1399.0
168.12085 355.31592 1399.0
176.00146 355.31592 1399.0
183.88213 355.31592 1399.0
191.76277 355.31592 1399.0
199.6434 355.31592 1399.0
207.52415 355.31592 1399.0
216.17464 356.5858 1404.0
224.08345 356.5858 1404.0
231.99226 356.5858 1404.0
239.90106 356.5858 1404.0
248.86899 358.10968 1410.0
257.90442 359.63354 1416.0
264.7542 358.10968 1410.0
272.6968 358.10968 1410.0
281.83362 359.63354 1416.0
289.81012 359.63354 1416.0
297.78653 359.63354 1416.0
305.76294 359.63354 1416.0
313.73935 359.63354 1416.0
321.71573 359.63354 1416.0
329.69226 359.63354 1416.0
339.09943 361.1574 1422.0
348.57425 362.68127 1428.0
356.61826 362.68127 1428.0
364.66223 362.68127 1428.0
372.7064 362.68127 1428.0
382.35016 364.20514 1434.0
390.42795 364.20514 1434.0
398.50577 364.20514 1434.0
406.58356 364.20514 1434.0
412.92648 362.68127 1428.0
422.73923 364.20514 1434.0
432.61963 365.72903 1440.0
440.7312 365.72903 1440.0
450.713 367.2529 1446.0
458.8585 367.2529 1446.0
465.06613 365.72903 1440.0
473.17773 365.72903 1440.0
483.29468 367.2529 1446.0
489.4009 365.72903 1440.0
499.58557 367.2529 1446.0
507.731 367.2529 1446.0
518.01697 368.77676 1452.0
528.3705 370.30063 1458.0
532.1672 367.2529 1446.0
542.5546 368.77676 1452.0
550.7338 368.77676 1452.0
556.60345 367.2529 1446.0
562.40546 365.72903 1440.0
570.5171 365.72903 1440.0
581.03973 367.2529 1446.0
591.6299 368.77676 1452.0
599.8091 368.77676 1452.0
607.9883 368.77676 1452.0
616.1675 368.77676 1452.0
624.34674 368.77676 1452.0
632.526 368.77676 1452.0
640.70514 368.77676 1452.0
651.5657 370.30063 1458.0
657.0636 368.77676 1452.0
667.9918 370.30063 1458.0
676.2048 370.30063 1458.0
681.60126 368.77676 1452.0
692.63074 370.30063 1458.0
703.7279 371.8245 1464.0
709.0569 370.30063 1458.0
717.26984 370.30063 1458.0
728.4684 371.8245 1464.0
736.71515 371.8245 1464.0
744.962 371.8245 1464.0
753.2088 371.8245 1464.0
761.4556 371.8245 1464.0
766.5479 370.30063 1458.0
777.9492 371.8245 1464.0
786.19604 371.8245 1464.0
797.69885 373.3484 1470.0
809.81744 375.12622 1477.0
818.1374 375.12622 1477.0
829.81476 376.6501 1483.0
838.1686 376.6501 1483.0
843.09753 375.12622 1477.0
854.87634 376.6501 1483.0
863.2301 376.6501 1483.0
871.5839 376.6501 1483.0
883.49786 378.17398 1489.0
888.2917 376.6501 1483.0
-761.4857 323.82822 1304.0
-754.14014 323.82822 1304.0
-749.6581 325.0699 1309.0
-742.2844 325.0699 1309.0
-737.71783 326.31155 1314.0
-730.31604 326.31155 1314.0
-720.1633 325.0699 1309.0
-715.5123 326.31155 1314.0
-708.1105 326.31155 1314.0
-700.70856 326.31155 1314.0
-693.3068 326.31155 1314.0
-688.5149 327.55325 1319.0
-681.0849 327.55325 1319.0
-673.65485 327.55325 1319.0
-668.7503 328.79492 1324.0
-661.2922 328.79492 1324.0
-653.8339 328.79492 1324.0
-646.3758 328.79492 1324.0
-638.9176 328.79492 1324.0
-631.45935 328.79492 1324.0
-626.3578 330.0366 1329.0
-621.1997 331.27826 1334.0
-613.68524 331.27826 1334.0
-606.1707 331.27826 1334.0
-596.41235 330.0366 1329.0
-588.926 330.0366 1329.0
-581.43964 330.0366 1329.0
-576.1127 331.27826 1334.0
-568.59814 331.27826 1334.0
-561.0836 331.27826 1334.0
-551.49426 330.0366 1329.0
-546.05457 331.27826 1334.0
-540.5586 332.51993 1339.0
-533.0159 332.51993 1339.0
-525.47327 332.51993 1339.0
-517.9306 332.51993 1339.0
-510.38788 332.51993 1339.0
-500.96753 331.27826 1334.0
-493.45303 331.27826 1334.0
-485.93848 331.27826 1334.0
-478.42398 331.27826 1334.0
-472.67447 332.51993 1339.0
-465.1318 332.51993 1339.0
-457.58914 332.51993 1339.0
-450.04645 332.51993 1339.0
-442.50378 332.51993 1339.0
-434.9611 332.51993 1339.0
-429.01447 333.7616 1344.0
-419.87576 332.51993 1339.0
-412.33307 332.51993 1339.0
-404.7904 332.51993 1339.0
-397.2477 332.51993 1339.0
-391.16025 333.7616 1344.0
-382.16238 332.51993 1339.0
-376.01855 333.7616 1344.0
-370.09256 335.25162 1350.0
-360.87686 333.7616 1344.0
-354.8833 335.25162 1350.0
-345.7352 333.7616 1344.0
-338.16434 333.7616 1344.0
-332.06937 335.25162 1350.0
-324.4647 335.25162 1350.0
-318.03363 336.4933 1355.0
-310.40088 336.4933 1355.0
-301.6508 335.25162 1350.0
-294.04617 335.25162 1350.0
-285.16843 333.7616 1344.0
-140.88678 224.49442 904.0
-135.49406 223.99774 902.0
-130.41306 223.99774 902.0
-125.33201 223.99774 902.0
-143.00484 337.73495 1360.0
-135.94093 339.22495 1366.0
-128.24619 339.22495 1366.0
-120.55144 339.22495 1366.0
-112.85663 339.22495 1366.0
-105.54681 340.4666 1371.0
-97.46708 339.22495 1366.0
-90.10092 340.4666 1371.0
-82.67844 341.70828 1376.0
-74.65504 340.4666 1371.0
-66.93213 340.4666 1371.0
-59.42509 341.70828 1376.0
-51.67401 341.70828 1376.0
-43.92293 341.70828 1376.0
-36.1718 341.70828 1376.0
-28.420717 341.70828 1376.0
-20.669584 341.70828 1376.0
-12.918503 341.70828 1376.0
-5.167421 341.70828 1376.0
2.5742726 340.4666 1371.0
10.334842 341.70828 1376.0
18.085924 341.70828 1376.0
25.949667 343.19833 1382.0
33.734547 343.19833 1382.0
41.33917 341.70828 1376.0
49.09035 341.70828 1376.0
56.841434 341.70828 1376.0
64.87417 343.19833 1382.0
72.65905 343.19833 1382.0
80.793175 344.68832 1388.0
88.22891 343.19833 1382.0
96.01379 343.19833 1382.0
103.79867 343.19833 1382.0
112.06799 344.68832 1388.0
119.88667 344.68832 1388.0
127.70545 344.68832 1388.0
136.01233 345.93 1393.0
143.85918 345.93 1393.0
151.70601 345.93 1393.0
160.24008 347.42 1399.0
168.12085 347.42 1399.0
176.00146 347.42 1399.0
183.88213 347.42 1399.0
191.76277 347.42 1399.0
199.6434 347.42 1399.0
207.52415 347.42 1399.0
215.40479 347.42 1399.0
224.08345 348.66168 1404.0
231.99226 348.66168 1404.0
240.92628 350.15167 1410.0
248.86899 350.15167 1410.0
257.90442 351.6417 1416.0
264.7542 350.15167 1410.0
273.8572 351.6417 1416.0
281.83362 351.6417 1416.0
289.81012 351.6417 1416.0
297.78653 351.6417 1416.0
305.76294 351.6417 1416.0
313.73935 351.6417 1416.0
323.07895 353.1317 1422.0
331.08926 353.1317 1422.0
339.09943 353.1317 1422.0
347.10965 353.1317 1422.0
355.11987 353.1317 1422.0
364.66223 354.6217 1428.0
372.7064 354.6217 1428.0
380.75037 354.6217 1428.0
390.42795 356.11172 1434.0
398.50577 356.11172 1434.0
406.58356 356.11172 1434.0
414.66144 356.11172 1434.0
422.73923 356.11172 1434.0
432.61963 357.6017 1440.0
440.7312 357.6017 1440.0
448.84283 357.6017 1440.0
456.95453 357.6017 1440.0
465.06613 357.6017 1440.0
475.1493 359.0917 1446.0
483.29468 359.0917 1446.0
491.4401 359.0917 1446.0
499.58557 359.0917 1446.0
507.731 359.0917 1446.0
515.8764 359.0917 1446.0
526.19617 360.58176 1452.0
534.3753 360.58176 1452.0
542.5546 360.58176 1452.0
550.7338 360.58176 1452.0
556.60345 359.0917 1446.0
564.74884 359.0917 1446.0
572.8942 359.0917 1446.0
581.03973 359.0917 1446.0
589.1851 359.0917 1446.0
599.8091 360.58176 1452.0
607.9883 360.58176 1452.0
616.1675 360.58176 1452.0
624.34674 360.58176 1452.0
632.526 360.58176 1452.0
640.70514 360.58176 1452.0
648.88434 360.58176 1452.0
659.7787 362.07175 1458.0
667.9918 362.07175 1458.0
676.2048 362.07175 1458.0
684.4178 362.07175 1458.0
692.63074 362.07175 1458.0
703.7279 363.56174 1464.0
709.0569 362.07175 1458.0
717.26984 362.07175 1458.0
725.48285 362.07175 1458.0
736.71515 363.56174 1464.0
744.962 363.56174 1464.0
753.2088 363.56174 1464.0
758.3349 362.07175 1458.0
766.5479 362.07175 1458.0
777.9492 363.56174 1464.0
786.19604 363.56174 1464.0
801.4974 366.7901 1477.0
809.81744 366.7901 1477.0
821.46094 368.28012 1483.0
829.81476 368.28012 1483.0
834.77747 366.7901 1477.0
846.5225 368.28012 1483.0
854.87634 368.28012 1483.0
863.2301 368.28012 1483.0
875.1102 369.7701 1489.0
883.49786 369.7701 1489.0
888.2917 368.28012 1483.0
-764.4055 317.68195 1309.0
-754.14014 316.4685 1304.0
-749.6581 317.68195 1309.0
-742.2844 317.68195 1309.0
-734.91064 317.68195 1309.0
-730.31604 318.89542 1314.0
-720.1633 317.68195 1309.0
-715.5123 318.89542 1314.0
-708.1105 318.89542 1314.0
-698.04224 317.68195 1309.0
-690.66864 317.68195 1309.0
-685.9049 318.89542 1314.0
-681.0849 320.10886 1319.0
-673.65485 320.10886 1319.0
-666.2248 320.10886 1319.0
-658.79486 320.10886 1319.0
-653.8339 321.3223 1324.0
-646.3758 321.3223 1324.0
-638.9176 321.3223 1324.0
-631.45935 321.3223 1324.0
-626.3578 322.53577 1329.0
-618.8714 322.53577 1329.0
-609.0849 321.3223 1324.0
-601.6267 321.3223 1324.0
-594.1685 321.3223 1324.0
-588.926 322.53577 1329.0
-583.62714 323.7492 1334.0
-576.1127 323.7492 1334.0
-570.7293 324.96268 1339.0
-558.9806 322.53577 1329.0
-551.49426 322.53577 1329.0
-548.10126 324.96268 1339.0
-540.5586 324.96268 1339.0
-533.0159 324.96268 1339.0
-523.51105 323.7492 1334.0
-517.9306 324.96268 1339.0
-512.2937 326.17612 1344.0
-502.8452 324.96268 1339.0
-493.45303 323.7492 1334.0
-485.93848 323.7492 1334.0
-478.42398 323.7492 1334.0
-472.67447 324.96268 1339.0
-463.39496 323.7492 1334.0
-457.58914 324.96268 1339.0
-450.04645 324.96268 1339.0
-442.50378 324.96268 1339.0
-434.9611 324.96268 1339.0
-427.41843 324.96268 1339.0
-419.87576 324.96268 1339.0
-412.33307 324.96268 1339.0
-404.7904 324.96268 1339.0
-397.2477 324.96268 1339.0
-391.16025 326.17612 1344.0
-383.58942 326.17612 1344.0
-377.6972 327.63226 1350.0
-368.44772 326.17612 1344.0
-362.48788 327.63226 1350.0
-354.8833 327.63226 1350.0
-347.2787 327.63226 1350.0
-339.674 327.63226 1350.0
-333.29926 328.84573 1355.0
-324.4647 327.63226 1350.0
-316.86008 327.63226 1350.0
-309.25546 327.63226 1350.0
-300.31012 326.17612 1344.0
-292.7393 326.17612 1344.0
-285.16843 326.17612 1344.0
-279.8696 328.84573 1355.0
-248.41829 327.63226 1350.0
-241.70557 328.84573 1355.0
-234.07277 328.84573 1355.0
-226.43993 328.84573 1355.0
-140.57507 218.90689 902.0
-135.04343 218.17882 899.0
-130.41306 218.90689 902.0
-125.6099 219.39227 904.0
-143.00484 330.05917 1360.0
-135.94093 331.51532 1366.0
-128.24619 331.51532 1366.0
-120.55144 331.51532 1366.0
-112.85663 331.51532 1366.0
-105.54681 332.72876 1371.0
-97.46708 331.51532 1366.0
-90.10092 332.72876 1371.0
-82.378006 332.72876 1371.0
-74.65504 332.72876 1371.0
-66.93213 332.72876 1371.0
-59.20916 332.72876 1371.0
-51.486244 332.72876 1371.0
-43.92293 333.94223 1376.0
-36.1718 333.94223 1376.0
-28.420717 333.94223 1376.0
-20.669584 333.94223 1376.0
-12.918503 333.94223 1376.0
-5.167421 333.94223 1376.0
2.583661 333.94223 1376.0
10.334842 333.94223 1376.0
18.085924 333.94223 1376.0
25.837006 333.94223 1376.0
33.734547 335.39835 1382.0
41.51943 335.39835 1382.0
49.304405 335.39835 1382.0
56.841434 333.94223 1376.0
64.87417 335.39835 1382.0
72.3436 333.94223 1376.0
80.09467 333.94223 1376.0
87.84586 333.94223 1376.0
96.01379 335.39835 1382.0
104.24931 336.85452 1388.0
112.471695 338.06796 1393.0
119.88667 336.85452 1388.0
127.70545 336.85452 1388.0
135.52412 336.85452 1388.0
143.3428 336.85452 1388.0
151.70601 338.06796 1393.0
159.55286 338.06796 1393.0
168.12085 339.5241 1399.0
176.00146 339.5241 1399.0
183.88213 339.5241 1399.0
191.76277 339.5241 1399.0
199.6434 339.5241 1399.0
207.52415 339.5241 1399.0
215.40479 339.5241 1399.0
224.08345 340.73755 1404.0
231.99226 340.73755 1404.0
240.92628 342.19373 1410.0
248.86899 342.19373 1410.0
256.81158 342.19373 1410.0
264.7542 342.19373 1410.0
273.8572 343.64984 1416.0
281.83362 343.64984 1416.0
289.81012 343.64984 1416.0
297.78653 343.64984 1416.0
305.76294 343.64984 1416.0
313.73935 343.64984 1416.0
323.07895 345.106 1422.0
331.08926 345.106 1422.0
339.09943 345.106 1422.0
347.10965 345.106 1422.0
355.11987 345.106 1422.0
364.66223 346.56213 1428.0
372.7064 346.56213 1428.0
380.75037 346.56213 1428.0
388.79437 346.56213 1428.0
396.83835 346.56213 1428.0
404.88235 346.56213 1428.0
414.66144 348.01828 1434.0
422.73923 348.01828 1434.0
430.81705 348.01828 1434.0
440.7312 349.47443 1440.0
448.84283 349.47443 1440.0
456.95453 349.47443 1440.0
467.0039 350.93057 1446.0
475.1493 350.93057 1446.0
483.29468 350.93057 1446.0
491.4401 350.93057 1446.0
499.58557 350.93057 1446.0
507.731 350.93057 1446.0
515.8764 350.93057 1446.0
524.0218 350.93057 1446.0
532.1672 350.93057 1446.0
540.3127 350.93057 1446.0
548.45807 350.93057 1446.0
558.913 352.3867 1452.0
564.74884 350.93057 1446.0
570.5171 349.47443 1440.0
578.6288 349.47443 1440.0
591.6299 352.3867 1452.0
599.8091 352.3867 1452.0
607.9883 352.3867 1452.0
618.7136 353.84286 1458.0
624.34674 352.3867 1452.0
632.526 352.3867 1452.0
643.3527 353.84286 1458.0
648.88434 352.3867 1452.0
659.7787 353.84286 1458.0
667.9918 353.84286 1458.0
676.2048 353.84286 1458.0
684.4178 353.84286 1458.0
692.63074 353.84286 1458.0
703.7279 355.29898 1464.0
711.9748 355.29898 1464.0
717.26984 353.84286 1458.0
725.48285 353.84286 1458.0
736.71515 355.29898 1464.0
744.962 355.29898 1464.0
753.2088 355.29898 1464.0
761.4556 355.29898 1464.0
769.7024 355.29898 1464.0
777.9492 355.29898 1464.0
786.19604 355.29898 1464.0
797.69885 356.75516 1470.0
809.81744 358.45395 1477.0
818.1374 358.45395 1477.0
826.4574 358.45395 1477.0
834.77747 358.45395 1477.0
843.09753 358.45395 1477.0
851.4176 358.45395 1477.0
863.2301 359.91013 1483.0
871.5839 359.91013 1483.0
879.93774 359.91013 1483.0
888.2917 359.91013 1483.0
-764.4055 310.29398 1309.0
-754.14014 309.10873 1304.0
-749.6581 310.29398 1309.0
-739.4491 309.10873 1304.0
-734.91064 310.29398 1309.0
-730.31604 311.47922 1314.0
-722.9141 311.47922 1314.0
-712.7897 310.29398 1309.0
-708.1105 311.47922 1314.0
-700.70856 311.47922 1314.0
-693.3068 311.47922 1314.0
-685.9049 311.47922 1314.0
-681.0849 312.66443 1319.0
-673.65485 312.66443 1319.0
-666.2248 312.66443 1319.0
-658.79486 312.66443 1319.0
-651.3648 312.66443 1319.0
-643.9348 312.66443 1319.0
-636.50476 312.66443 1319.0
-629.0747 312.66443 1319.0
-624.0013 313.84967 1324.0
-616.543 313.84967 1324.0
-606.7847 312.66443 1319.0
-599.3547 312.66443 1319.0
-594.1685 313.84967 1324.0
-586.7103 313.84967 1324.0
-583.62714 316.22015 1334.0
-576.1127 316.22015 1334.0
-570.7293 317.40536 1339.0
-558.9806 315.0349 1329.0
-549.41943 313.84967 1324.0
-546.05457 316.22015 1334.0
-538.5401 316.22015 1334.0
-533.0159 317.40536 1339.0
-525.47327 317.40536 1339.0
-517.9306 317.40536 1339.0
-512.2937 318.5906 1344.0
-502.8452 317.40536 1339.0
-495.30255 317.40536 1339.0
-487.75986 317.40536 1339.0
-478.42398 316.22015 1334.0
-470.90945 316.22015 1334.0
-463.39496 316.22015 1334.0
-455.88046 316.22015 1334.0
-450.04645 317.40536 1339.0
-442.50378 317.40536 1339.0
-434.9611 317.40536 1339.0
-427.41843 317.40536 1339.0
-419.87576 317.40536 1339.0
-412.33307 317.40536 1339.0
-404.7904 317.40536 1339.0
-397.2477 317.40536 1339.0
-389.70505 317.40536 1339.0
-382.16238 317.40536 1339.0
-374.6197 317.40536 1339.0
-367.07703 317.40536 1339.0
-360.87686 318.5906 1344.0
-353.30603 318.5906 1344.0
-347.2787 320.01288 1350.0
-339.674 320.01288 1350.0
-333.29926 321.1981 1355.0
-324.4647 320.01288 1350.0
-316.86008 320.01288 1350.0
-309.25546 320.01288 1350.0
-300.31012 318.5906 1344.0
-292.7393 318.5906 1344.0
-286.4415 320.01288 1350.0
-279.8696 321.1981 1355.0
-272.23682 321.1981 1355.0
-264.60397 321.1981 1355.0
-256.02295 320.01288 1350.0
-249.33835 321.1981 1355.0
-241.70557 321.1981 1355.0
-234.07277 321.1981 1355.0
-226.43993 321.1981 1355.0
-219.61456 322.38333 1360.0
-140.10753 213.10487 899.0
-135.49406 213.81602 902.0
-130.70221 214.2901 904.0
-125.6099 214.2901 904.0
-143.00484 322.38333 1360.0
-135.34383 322.38333 1360.0
-127.68288 322.38333 1360.0
-120.55144 323.80563 1366.0
-112.85663 323.80563 1366.0
-105.54681 324.99084 1371.0
-97.82384 324.99084 1371.0
-90.10092 324.99084 1371.0
-82.077576 323.80563 1366.0
-74.65504 324.99084 1371.0
-66.93213 324.99084 1371.0
-59.20916 324.99084 1371.0
-51.486244 324.99084 1371.0
-43.92293 326.1761 1376.0
-36.1718 326.1761 1376.0
-28.420717 326.1761 1376.0
-20.669584 326.1761 1376.0
-12.918503 326.1761 1376.0
-5.167421 326.1761 1376.0
2.583661 326.1761 1376.0
10.334842 326.1761 1376.0
18.085924 326.1761 1376.0
25.837006 326.1761 1376.0
33.58809 326.1761 1376.0
41.33917 326.1761 1376.0
49.09035 326.1761 1376.0
56.841434 326.1761 1376.0
64.592514 326.1761 1376.0
72.3436 326.1761 1376.0
80.09467 326.1761 1376.0
88.22891 327.5984 1382.0
96.01379 327.5984 1382.0
104.24931 329.02063 1388.0
112.471695 330.20587 1393.0
