ply
format ascii 1.0
element vertex 1715
property float x
property float y
property float z
end_header
-729.2964 190.61932 1299.0
-721.9791 190.61932 1299.0
-717.41254 191.35303 1304.0
-710.067 191.35303 1304.0
-705.416 192.08675 1309.0
-700.70856 192.82047 1314.0
-695.94495 193.55418 1319.0
-683.2949 192.08675 1309.0
-675.9212 192.08675 1309.0
-671.1012 192.82047 1314.0
-663.6993 192.82047 1314.0
-656.29755 192.82047 1314.0
-651.3648 193.55418 1319.0
-643.9348 193.55418 1319.0
-636.50476 193.55418 1319.0
-629.0747 193.55418 1319.0
-621.6448 193.55418 1319.0
-614.2147 193.55418 1319.0
-609.0849 194.28789 1324.0
-601.6267 194.28789 1324.0
-594.1685 194.28789 1324.0
-586.7103 194.28789 1324.0
-579.25214 194.28789 1324.0
-571.79395 194.28789 1324.0
-564.3358 194.28789 1324.0
-556.87756 194.28789 1324.0
-549.41943 194.28789 1324.0
-544.0079 195.0216 1329.0
-536.52155 195.0216 1329.0
-529.0352 195.0216 1329.0
-523.51105 195.75533 1334.0
-515.9966 195.75533 1334.0
-508.48203 195.75533 1334.0
-502.8452 196.48904 1339.0
-493.45303 195.75533 1334.0
-485.93848 195.75533 1334.0
-480.2172 196.48904 1339.0
-470.90945 195.75533 1334.0
-465.1318 196.48904 1339.0
-457.58914 196.48904 1339.0
-450.04645 196.48904 1339.0
-442.50378 196.48904 1339.0
-434.9611 196.48904 1339.0
-429.01447 197.22276 1344.0
-421.44363 197.22276 1344.0
-413.87277 197.22276 1344.0
-406.30194 197.22276 1344.0
-398.73108 197.22276 1344.0
-391.16025 197.22276 1344.0
-382.16238 196.48904 1339.0
-376.01855 197.22276 1344.0
-368.44772 197.22276 1344.0
-360.87686 197.22276 1344.0
-353.30603 197.22276 1344.0
-345.7352 197.22276 1344.0
-338.16434 197.22276 1344.0
-330.5935 197.22276 1344.0
-323.02264 197.22276 1344.0
-315.4518 197.22276 1344.0
-309.25546 198.10321 1350.0
-301.6508 198.10321 1350.0
-294.04617 198.10321 1350.0
-286.4415 198.10321 1350.0
-278.83688 198.10321 1350.0
-178.41054 130.30789 888.0
-173.01779 130.0144 886.0
-168.02692 130.0144 886.0
-163.03601 130.0144 886.0
-211.17432 198.83693 1355.0
-203.54153 198.83693 1355.0
-195.90874 198.83693 1355.0
-188.2759 198.83693 1355.0
-181.30971 199.57063 1360.0
-173.01028 198.83693 1355.0
-165.37749 198.83693 1355.0
-157.7447 198.83693 1355.0
-150.11186 198.83693 1355.0
-143.00484 199.57063 1360.0
-135.34383 199.57063 1360.0
-127.68288 199.57063 1360.0
-120.02192 199.57063 1360.0
-112.36092 199.57063 1360.0
-104.69997 199.57063 1360.0
-97.03897 199.57063 1360.0
-89.37801 199.57063 1360.0
-81.71706 199.57063 1360.0
-74.05606 199.57063 1360.0
-66.68803 200.4511 1366.0
-58.993225 200.4511 1366.0
-51.298473 200.4511 1366.0
-43.60372 200.4511 1366.0
-35.908924 200.4511 1366.0
-28.317442 201.18481 1371.0
-20.594477 201.18481 1371.0
-12.871561 201.18481 1371.0
-5.148644 201.18481 1371.0
2.5742726 201.18481 1371.0
10.297288 201.18481 1371.0
18.020205 201.18481 1371.0
25.743122 201.18481 1371.0
33.466038 201.18481 1371.0
41.33917 201.91853 1376.0
48.91197 201.18481 1371.0
56.634884 201.18481 1371.0
64.592514 201.91853 1376.0
72.3436 201.91853 1376.0
80.09467 201.91853 1376.0
87.84586 201.91853 1376.0
95.59694 201.91853 1376.0
103.34802 201.91853 1376.0
111.099106 201.91853 1376.0
118.85018 201.91853 1376.0
127.15341 202.799 1382.0
135.52412 203.67944 1388.0
143.3428 203.67944 1388.0
151.16148 203.67944 1388.0
159.55286 204.41316 1393.0
167.3998 204.41316 1393.0
175.24664 204.41316 1393.0
183.09349 204.41316 1393.0
190.94034 204.41316 1393.0
198.78717 204.41316 1393.0
206.63412 204.41316 1393.0
214.48096 204.41316 1393.0
222.3278 204.41316 1393.0
231.16608 205.29362 1399.0
239.0467 205.29362 1399.0
246.92746 205.29362 1399.0
254.80809 205.29362 1399.0
262.68875 205.29362 1399.0
270.5694 205.29362 1399.0
278.45 205.29362 1399.0
286.33078 205.29362 1399.0
295.2629 206.02734 1404.0
303.17172 206.02734 1404.0
312.4099 206.90779 1410.0
321.71573 207.78825 1416.0
329.69226 207.78825 1416.0
339.09943 208.66872 1422.0
345.64505 207.78825 1416.0
353.62146 207.78825 1416.0
361.59787 207.78825 1416.0
369.57437 207.78825 1416.0
377.55078 207.78825 1416.0
387.16077 208.66872 1422.0
393.50357 207.78825 1416.0
403.18115 208.66872 1422.0
409.45648 207.78825 1416.0
417.4329 207.78825 1416.0
427.21188 208.66872 1422.0
435.2221 208.66872 1422.0
446.97266 210.42964 1434.0
455.05054 210.42964 1434.0
461.19058 209.54918 1428.0
469.23456 209.54918 1428.0
479.28394 210.42964 1434.0
487.36176 210.42964 1434.0
495.43964 210.42964 1434.0
505.62424 211.31009 1440.0
513.73584 211.31009 1440.0
521.8474 211.31009 1440.0
527.75085 210.42964 1434.0
538.0707 211.31009 1440.0
546.1823 211.31009 1440.0
556.60345 212.19055 1446.0
562.40546 211.31009 1440.0
570.5171 211.31009 1440.0
578.6288 211.31009 1440.0
589.1851 212.19055 1446.0
594.852 211.31009 1440.0
605.47595 212.19055 1446.0
613.62134 212.19055 1446.0
624.34674 213.07101 1452.0
632.526 213.07101 1452.0
640.70514 213.07101 1452.0
648.88434 213.07101 1452.0
659.7787 213.95146 1458.0
667.9918 213.95146 1458.0
673.42206 213.07101 1452.0
681.60126 213.07101 1452.0
689.7804 213.07101 1452.0
700.84375 213.95146 1458.0
709.0569 213.95146 1458.0
717.26984 213.95146 1458.0
725.48285 213.95146 1458.0
733.6958 213.95146 1458.0
741.9088 213.95146 1458.0
753.2088 214.83194 1464.0
761.4556 214.83194 1464.0
769.7024 214.83194 1464.0
777.9492 214.83194 1464.0
786.19604 214.83194 1464.0
794.4429 214.83194 1464.0
802.6897 214.83194 1464.0
810.93646 214.83194 1464.0
819.1833 214.83194 1464.0
827.43005 214.83194 1464.0
839.10187 215.71239 1470.0
847.38245 215.71239 1470.0
855.663 215.71239 1470.0
863.94366 215.71239 1470.0
872.2242 215.71239 1470.0
880.50494 215.71239 1470.0
-758.5659 183.28781 1299.0
-748.3568 182.58232 1294.0
-741.0677 182.58232 1294.0
-736.6138 183.28781 1299.0
-732.1035 183.9933 1304.0
-724.7581 183.9933 1304.0
-717.41254 183.9933 1304.0
-710.067 183.9933 1304.0
-708.1105 185.4043 1314.0
-700.70856 185.4043 1314.0
-693.3068 185.4043 1314.0
-685.9049 185.4043 1314.0
-678.50305 185.4043 1314.0
-671.1012 185.4043 1314.0
-663.6993 185.4043 1314.0
-656.29755 185.4043 1314.0
-651.3648 186.10979 1319.0
-646.3758 186.81529 1324.0
-638.9176 186.81529 1324.0
-631.45935 186.81529 1324.0
-624.0013 186.81529 1324.0
-616.543 186.81529 1324.0
-609.0849 186.81529 1324.0
-599.3547 186.10979 1319.0
-591.9247 186.10979 1319.0
-586.7103 186.81529 1324.0
-579.25214 186.81529 1324.0
-571.79395 186.81529 1324.0
-564.3358 186.81529 1324.0
-556.87756 186.81529 1324.0
-551.49426 187.52078 1329.0
-544.0079 187.52078 1329.0
-538.5401 188.22627 1334.0
-531.0256 188.22627 1334.0
-523.51105 188.22627 1334.0
-514.06256 187.52078 1329.0
-508.48203 188.22627 1334.0
-500.96753 188.22627 1334.0
-495.30255 188.93178 1339.0
-487.75986 188.93178 1339.0
-480.2172 188.93178 1339.0
-470.90945 188.22627 1334.0
-465.1318 188.93178 1339.0
-459.29785 189.63727 1344.0
-450.04645 188.93178 1339.0
-442.50378 188.93178 1339.0
-434.9611 188.93178 1339.0
-429.01447 189.63727 1344.0
-421.44363 189.63727 1344.0
-413.87277 189.63727 1344.0
-406.30194 189.63727 1344.0
-398.73108 189.63727 1344.0
-391.16025 189.63727 1344.0
-382.16238 188.93178 1339.0
-376.01855 189.63727 1344.0
-368.44772 189.63727 1344.0
-360.87686 189.63727 1344.0
-353.30603 189.63727 1344.0
-347.2787 190.48387 1350.0
-338.16434 189.63727 1344.0
-329.36362 188.93178 1339.0
-323.02264 189.63727 1344.0
-315.4518 189.63727 1344.0
-307.88098 189.63727 1344.0
-300.31012 189.63727 1344.0
-294.04617 190.48387 1350.0
-285.16843 189.63727 1344.0
-278.83688 190.48387 1350.0
-177.40598 124.59056 883.0
-172.43196 124.59056 883.0
-167.458 124.59056 883.0
-203.54153 191.18936 1355.0
-195.90874 191.18936 1355.0
-188.97064 191.89485 1360.0
-180.64313 191.18936 1355.0
-173.6487 191.89485 1360.0
-165.37749 191.18936 1355.0
-157.7447 191.18936 1355.0
-150.66579 191.89485 1360.0
-143.00484 191.89485 1360.0
-135.34383 191.89485 1360.0
-127.68288 191.89485 1360.0
-120.02192 191.89485 1360.0
-112.36092 191.89485 1360.0
-104.69997 191.89485 1360.0
-97.46708 192.74146 1366.0
-89.77233 192.74146 1366.0
-81.71706 191.89485 1360.0
-74.05606 191.89485 1360.0
-66.3951 191.89485 1360.0
-58.734104 191.89485 1360.0
-51.298473 192.74146 1366.0
-43.60372 192.74146 1366.0
-36.04036 193.44695 1371.0
-28.317442 193.44695 1371.0
-20.594477 193.44695 1371.0
-12.871561 193.44695 1371.0
-5.148644 193.44695 1371.0
2.5742726 193.44695 1371.0
10.297288 193.44695 1371.0
18.020205 193.44695 1371.0
25.743122 193.44695 1371.0
33.466038 193.44695 1371.0
41.33917 194.15245 1376.0
48.91197 193.44695 1371.0
56.634884 193.44695 1371.0
64.592514 194.15245 1376.0
72.3436 194.15245 1376.0
79.80364 193.44695 1371.0
87.52665 193.44695 1371.0
95.59694 194.15245 1376.0
103.34802 194.15245 1376.0
111.099106 194.15245 1376.0
118.85018 194.15245 1376.0
127.15341 194.99904 1382.0
135.52412 195.84564 1388.0
143.3428 195.84564 1388.0
151.16148 195.84564 1388.0
158.98016 195.84564 1388.0
166.79893 195.84564 1388.0
174.61761 195.84564 1388.0
183.09349 196.55113 1393.0
190.94034 196.55113 1393.0
198.78717 196.55113 1393.0
206.63412 196.55113 1393.0
214.48096 196.55113 1393.0
222.3278 196.55113 1393.0
231.16608 197.39772 1399.0
239.0467 197.39772 1399.0
246.92746 197.39772 1399.0
254.80809 197.39772 1399.0
262.68875 197.39772 1399.0
270.5694 197.39772 1399.0
278.45 197.39772 1399.0
286.33078 197.39772 1399.0
295.2629 198.10323 1404.0
303.17172 198.10323 1404.0
312.4099 198.94981 1410.0
321.71573 199.79642 1416.0
329.69226 199.79642 1416.0
337.66864 199.79642 1416.0
344.18045 198.94981 1410.0
353.62146 199.79642 1416.0
361.59787 199.79642 1416.0
369.57437 199.79642 1416.0
377.55078 199.79642 1416.0
387.16077 200.643 1422.0
395.171 200.643 1422.0
403.18115 200.643 1422.0
409.45648 199.79642 1416.0
417.4329 199.79642 1416.0
427.21188 200.643 1422.0
435.2221 200.643 1422.0
446.97266 202.3362 1434.0
455.05054 202.3362 1434.0
463.12833 202.3362 1434.0
471.20615 202.3362 1434.0
479.28394 202.3362 1434.0
487.36176 202.3362 1434.0
495.43964 202.3362 1434.0
503.51743 202.3362 1434.0
513.73584 203.18279 1440.0
521.8474 203.18279 1440.0
527.75085 202.3362 1434.0
538.0707 203.18279 1440.0
546.1823 203.18279 1440.0
556.60345 204.02939 1446.0
564.74884 204.02939 1446.0
572.8942 204.02939 1446.0
578.6288 203.18279 1440.0
589.1851 204.02939 1446.0
597.33057 204.02939 1446.0
607.9883 204.87598 1452.0
613.62134 204.02939 1446.0
624.34674 204.87598 1452.0
632.526 204.87598 1452.0
638.0576 204.02939 1446.0
646.20306 204.02939 1446.0
657.0636 204.87598 1452.0
665.2428 204.87598 1452.0
673.42206 204.87598 1452.0
681.60126 204.87598 1452.0
689.7804 204.87598 1452.0
700.84375 205.72258 1458.0
709.0569 205.72258 1458.0
717.26984 205.72258 1458.0
725.48285 205.72258 1458.0
733.6958 205.72258 1458.0
744.962 206.56917 1464.0
750.12195 205.72258 1458.0
761.4556 206.56917 1464.0
769.7024 206.56917 1464.0
777.9492 206.56917 1464.0
786.19604 206.56917 1464.0
794.4429 206.56917 1464.0
802.6897 206.56917 1464.0
810.93646 206.56917 1464.0
819.1833 206.56917 1464.0
827.43005 206.56917 1464.0
839.10187 207.41577 1470.0
847.38245 207.41577 1470.0
852.17053 206.56917 1464.0
863.94366 207.41577 1470.0
872.2242 207.41577 1470.0
884.69775 208.40346 1477.0
-761.4857 176.63358 1304.0
-748.3568 175.27902 1294.0
-743.93115 175.9563 1299.0
-736.6138 175.9563 1299.0
-732.1035 176.63358 1304.0
-724.7581 176.63358 1304.0
-720.1633 177.31085 1309.0
-710.067 176.63358 1304.0
-705.416 177.31085 1309.0
-698.04224 177.31085 1309.0
-690.66864 177.31085 1309.0
-683.2949 177.31085 1309.0
-675.9212 177.31085 1309.0
-668.54755 177.31085 1309.0
-663.6993 177.98813 1314.0
-658.79486 178.6654 1319.0
-651.3648 178.6654 1319.0
-646.3758 179.34268 1324.0
-636.50476 178.6654 1319.0
-631.45935 179.34268 1324.0
-621.6448 178.6654 1319.0
-614.2147 178.6654 1319.0
-609.0849 179.34268 1324.0
-599.3547 178.6654 1319.0
-591.9247 178.6654 1319.0
-584.4947 178.6654 1319.0
-579.25214 179.34268 1324.0
-569.63464 178.6654 1319.0
-564.3358 179.34268 1324.0
-556.87756 179.34268 1324.0
-551.49426 180.01996 1329.0
-541.96124 179.34268 1324.0
-534.50305 179.34268 1324.0
-529.0352 180.01996 1329.0
-521.5489 180.01996 1329.0
-514.06256 180.01996 1329.0
-508.48203 180.69724 1334.0
-502.8452 181.37451 1339.0
-495.30255 181.37451 1339.0
-487.75986 181.37451 1339.0
-478.42398 180.69724 1334.0
-470.90945 180.69724 1334.0
-465.1318 181.37451 1339.0
-457.58914 181.37451 1339.0
-450.04645 181.37451 1339.0
-442.50378 181.37451 1339.0
-434.9611 181.37451 1339.0
-429.01447 182.05179 1344.0
-421.44363 182.05179 1344.0
-413.87277 182.05179 1344.0
-404.7904 181.37451 1339.0
-398.73108 182.05179 1344.0
-391.16025 182.05179 1344.0
-382.16238 181.37451 1339.0
-374.6197 181.37451 1339.0
-367.07703 181.37451 1339.0
-359.5343 181.37451 1339.0
-353.30603 182.05179 1344.0
-345.7352 182.05179 1344.0
-339.674 182.86453 1350.0
-330.5935 182.05179 1344.0
-323.02264 182.05179 1344.0
-315.4518 182.05179 1344.0
-307.88098 182.05179 1344.0
-301.6508 182.86453 1350.0
-294.04617 182.86453 1350.0
-285.16843 182.05179 1344.0
-181.96687 119.33604 881.0
-177.00415 119.33604 881.0
-172.43196 119.60695 883.0
-167.458 119.60695 883.0
-203.54153 183.54181 1355.0
-195.90874 183.54181 1355.0
-188.2759 183.54181 1355.0
-180.64313 183.54181 1355.0
-173.6487 184.21907 1360.0
-165.98773 184.21907 1360.0
-157.7447 183.54181 1355.0
-150.11186 183.54181 1355.0
-142.47908 183.54181 1355.0
-135.34383 184.21907 1360.0
-127.68288 184.21907 1360.0
-120.02192 184.21907 1360.0
-112.36092 184.21907 1360.0
-104.69997 184.21907 1360.0
-97.03897 184.21907 1360.0
-89.37801 184.21907 1360.0
-81.71706 184.21907 1360.0
-74.05606 184.21907 1360.0
-66.3951 184.21907 1360.0
-58.734104 184.21907 1360.0
-51.298473 185.0318 1366.0
-43.412197 184.21907 1360.0
-35.908924 185.0318 1366.0
-28.317442 185.70908 1371.0
-20.594477 185.70908 1371.0
-12.824618 185.0318 1366.0
-5.129867 185.0318 1366.0
2.5536187 184.21907 1360.0
10.259734 185.0318 1366.0
17.954485 185.0318 1366.0
25.743122 185.70908 1371.0
33.466038 185.70908 1371.0
41.188953 185.70908 1371.0
48.91197 185.70908 1371.0
56.634884 185.70908 1371.0
64.592514 186.38635 1376.0
72.3436 186.38635 1376.0
80.09467 186.38635 1376.0
87.84586 186.38635 1376.0
95.59694 186.38635 1376.0
103.34802 186.38635 1376.0
111.099106 186.38635 1376.0
118.85018 186.38635 1376.0
127.15341 187.19908 1382.0
134.93828 187.19908 1382.0
143.3428 188.01183 1388.0
150.50806 187.19908 1382.0
158.29294 187.19908 1382.0
166.0779 187.19908 1382.0
173.8628 187.19908 1382.0
183.09349 188.6891 1393.0
190.94034 188.6891 1393.0
198.78717 188.6891 1393.0
206.63412 188.6891 1393.0
214.48096 188.6891 1393.0
222.3278 188.6891 1393.0
230.17467 188.6891 1393.0
239.0467 189.50182 1399.0
246.92746 189.50182 1399.0
254.80809 189.50182 1399.0
262.68875 189.50182 1399.0
270.5694 189.50182 1399.0
278.45 189.50182 1399.0
286.33078 189.50182 1399.0
295.2629 190.1791 1404.0
303.17172 190.1791 1404.0
312.4099 190.99184 1410.0
320.35254 190.99184 1410.0
328.29526 190.99184 1410.0
337.66864 191.80457 1416.0
344.18045 190.99184 1410.0
353.62146 191.80457 1416.0
361.59787 191.80457 1416.0
369.57437 191.80457 1416.0
377.55078 191.80457 1416.0
387.16077 192.6173 1422.0
395.171 192.6173 1422.0
403.18115 192.6173 1422.0
409.45648 191.80457 1416.0
417.4329 191.80457 1416.0
427.21188 192.6173 1422.0
433.3857 191.80457 1416.0
443.23227 192.6173 1422.0
451.2426 192.6173 1422.0
461.19058 193.43002 1428.0
469.23456 193.43002 1428.0
479.28394 194.24275 1434.0
487.36176 194.24275 1434.0
495.43964 194.24275 1434.0
503.51743 194.24275 1434.0
511.59525 194.24275 1434.0
519.67303 194.24275 1434.0
527.75085 194.24275 1434.0
538.0707 195.0555 1440.0
548.45807 195.86823 1446.0
556.60345 195.86823 1446.0
567.0922 196.68094 1452.0
572.8942 195.86823 1446.0
578.6288 195.0555 1440.0
589.1851 195.86823 1446.0
597.33057 195.86823 1446.0
607.9883 196.68094 1452.0
616.1675 196.68094 1452.0
624.34674 196.68094 1452.0
632.526 196.68094 1452.0
638.0576 195.86823 1446.0
646.20306 195.86823 1446.0
654.3484 195.86823 1446.0
665.2428 196.68094 1452.0
673.42206 196.68094 1452.0
684.4178 197.49368 1458.0
689.7804 196.68094 1452.0
700.84375 197.49368 1458.0
709.0569 197.49368 1458.0
717.26984 197.49368 1458.0
725.48285 197.49368 1458.0
733.6958 197.49368 1458.0
741.9088 197.49368 1458.0
753.2088 198.30641 1464.0
761.4556 198.30641 1464.0
769.7024 198.30641 1464.0
777.9492 198.30641 1464.0
786.19604 198.30641 1464.0
794.4429 198.30641 1464.0
802.6897 198.30641 1464.0
810.93646 198.30641 1464.0
819.1833 198.30641 1464.0
827.43005 198.30641 1464.0
839.10187 199.11916 1470.0
847.38245 199.11916 1470.0
852.17053 198.30641 1464.0
860.41736 198.30641 1464.0
872.2242 199.11916 1470.0
884.69775 200.06732 1477.0
-758.5659 168.6248 1299.0
-745.4652 167.32669 1289.0
-741.0677 167.97574 1294.0
-733.7785 167.97574 1294.0
-729.2964 168.6248 1299.0
-724.7581 169.27385 1304.0
-720.1633 169.92291 1309.0
-710.067 169.27385 1304.0
-702.7215 169.27385 1304.0
-695.3759 169.27385 1304.0
-690.66864 169.92291 1309.0
-683.2949 169.92291 1309.0
-675.9212 169.92291 1309.0
-668.54755 169.92291 1309.0
-663.6993 170.57196 1314.0
-658.79486 171.22102 1319.0
-651.3648 171.22102 1319.0
-643.9348 171.22102 1319.0
-636.50476 171.22102 1319.0
-629.0747 171.22102 1319.0
-621.6448 171.22102 1319.0
-616.543 171.87007 1324.0
-609.0849 171.87007 1324.0
-599.3547 171.22102 1319.0
-594.1685 171.87007 1324.0
-584.4947 171.22102 1319.0
-579.25214 171.87007 1324.0
-571.79395 171.87007 1324.0
-564.3358 171.87007 1324.0
-556.87756 171.87007 1324.0
-549.41943 171.87007 1324.0
-541.96124 171.87007 1324.0
-534.50305 171.87007 1324.0
-527.04486 171.87007 1324.0
-521.5489 172.51913 1329.0
-514.06256 172.51913 1329.0
-510.38788 173.81725 1339.0
-502.8452 173.81725 1339.0
-495.30255 173.81725 1339.0
-487.75986 173.81725 1339.0
-478.42398 173.16818 1334.0
-472.67447 173.81725 1339.0
-465.1318 173.81725 1339.0
-459.29785 174.46631 1344.0
-450.04645 173.81725 1339.0
-442.50378 173.81725 1339.0
-434.9611 173.81725 1339.0
-429.01447 174.46631 1344.0
-421.44363 174.46631 1344.0
-412.33307 173.81725 1339.0
-404.7904 173.81725 1339.0
-397.2477 173.81725 1339.0
-389.70505 173.81725 1339.0
-380.73532 173.16818 1334.0
-374.6197 173.81725 1339.0
-367.07703 173.81725 1339.0
-360.87686 174.46631 1344.0
-353.30603 174.46631 1344.0
-345.7352 174.46631 1344.0
-338.16434 174.46631 1344.0
-330.5935 174.46631 1344.0
-323.02264 174.46631 1344.0
-315.4518 174.46631 1344.0
-307.88098 174.46631 1344.0
-301.6508 175.24518 1350.0
-294.04617 175.24518 1350.0
-286.4415 175.24518 1350.0
-182.9996 115.01276 886.0
-177.40598 114.62332 883.0
-172.0414 114.3637 881.0
-167.458 114.62332 883.0
-195.90874 175.89423 1355.0
-188.2759 175.89423 1355.0
-180.64313 175.89423 1355.0
-173.6487 176.54329 1360.0
-165.98773 176.54329 1360.0
-157.7447 175.89423 1355.0
-150.11186 175.89423 1355.0
-143.00484 176.54329 1360.0
-135.34383 176.54329 1360.0
-127.68288 176.54329 1360.0
-120.02192 176.54329 1360.0
-112.36092 176.54329 1360.0
-104.69997 176.54329 1360.0
-97.03897 176.54329 1360.0
-89.37801 176.54329 1360.0
-82.077576 177.32216 1366.0
-74.05606 176.54329 1360.0
-66.3951 176.54329 1360.0
-58.734104 176.54329 1360.0
-51.07315 176.54329 1360.0
-43.60372 177.32216 1366.0
-35.908924 177.32216 1366.0
-28.214169 177.32216 1366.0
-20.594477 177.9712 1371.0
-12.871561 177.9712 1371.0
-5.148644 177.9712 1371.0
2.5536187 176.54329 1360.0
10.214669 176.54329 1360.0
17.954485 177.32216 1366.0
25.649237 177.32216 1366.0
33.466038 177.9712 1371.0
41.188953 177.9712 1371.0
48.91197 177.9712 1371.0
56.634884 177.9712 1371.0
64.3578 177.9712 1371.0
72.08072 177.9712 1371.0
80.09467 178.62027 1376.0
87.84586 178.62027 1376.0
95.59694 178.62027 1376.0
103.34802 178.62027 1376.0
111.099106 178.62027 1376.0
118.85018 178.62027 1376.0
126.60137 178.62027 1376.0
134.93828 179.39914 1382.0
143.3428 180.178 1388.0
150.50806 179.39914 1382.0
158.29294 179.39914 1382.0
166.0779 179.39914 1382.0
174.61761 180.178 1388.0
182.4363 180.178 1388.0
190.94034 180.82704 1393.0
198.78717 180.82704 1393.0
206.63412 180.82704 1393.0
214.48096 180.82704 1393.0
222.3278 180.82704 1393.0
230.17467 180.82704 1393.0
238.0215 180.82704 1393.0
246.92746 181.60591 1399.0
254.80809 181.60591 1399.0
262.68875 181.60591 1399.0
270.5694 181.60591 1399.0
279.4452 182.25497 1404.0
287.35413 182.25497 1404.0
295.2629 182.25497 1404.0
303.17172 182.25497 1404.0
311.08054 182.25497 1404.0
318.98935 182.25497 1404.0
326.89822 182.25497 1404.0
336.23788 183.03384 1410.0
344.18045 183.03384 1410.0
353.62146 183.81271 1416.0
361.59787 183.81271 1416.0
369.57437 183.81271 1416.0
377.55078 183.81271 1416.0
387.16077 184.59158 1422.0
395.171 184.59158 1422.0
403.18115 184.59158 1422.0
409.45648 183.81271 1416.0
417.4329 183.81271 1416.0
425.4093 183.81271 1416.0
433.3857 183.81271 1416.0
443.23227 184.59158 1422.0
453.14658 185.37045 1428.0
461.19058 185.37045 1428.0
469.23456 185.37045 1428.0
477.27856 185.37045 1428.0
487.36176 186.1493 1434.0
495.43964 186.1493 1434.0
503.51743 186.1493 1434.0
511.59525 186.1493 1434.0
519.67303 186.1493 1434.0
527.75085 186.1493 1434.0
538.0707 186.92818 1440.0
546.1823 186.92818 1440.0
554.2939 186.92818 1440.0
562.40546 186.92818 1440.0
572.8942 187.70705 1446.0
581.03973 187.70705 1446.0
589.1851 187.70705 1446.0
594.852 186.92818 1440.0
607.9883 188.48592 1452.0
616.1675 188.48592 1452.0
624.34674 188.48592 1452.0
629.9122 187.70705 1446.0
638.0576 187.70705 1446.0
646.20306 187.70705 1446.0
654.3484 187.70705 1446.0
665.2428 188.48592 1452.0
676.2048 189.26479 1458.0
684.4178 189.26479 1458.0
692.63074 189.26479 1458.0
700.84375 189.26479 1458.0
706.1389 188.48592 1452.0
717.26984 189.26479 1458.0
722.4973 188.48592 1452.0
733.6958 189.26479 1458.0
741.9088 189.26479 1458.0
753.2088 190.04366 1464.0
761.4556 190.04366 1464.0
769.7024 190.04366 1464.0
777.9492 190.04366 1464.0
786.19604 190.04366 1464.0
794.4429 190.04366 1464.0
802.6897 190.04366 1464.0
810.93646 190.04366 1464.0
815.8259 189.26479 1458.0
827.43005 190.04366 1464.0
839.10187 190.82253 1470.0
847.38245 190.82253 1470.0
855.663 190.82253 1470.0
856.891 189.26479 1458.0
868.6641 190.04366 1464.0
884.69775 191.7312 1477.0
-755.64606 160.67242 1294.0
-748.3568 160.67242 1294.0
-746.7946 161.9141 1304.0
-739.4491 161.9141 1304.0
-729.2964 161.29326 1299.0
-721.9791 161.29326 1299.0
-720.1633 162.53493 1309.0
-712.7897 162.53493 1309.0
-702.7215 161.9141 1304.0
-695.3759 161.9141 1304.0
-690.66864 162.53493 1309.0
-683.2949 162.53493 1309.0
-675.9212 162.53493 1309.0
-671.1012 163.15578 1314.0
-666.2248 163.77661 1319.0
-658.79486 163.77661 1319.0
-651.3648 163.77661 1319.0
-643.9348 163.77661 1319.0
-636.50476 163.77661 1319.0
-629.0747 163.77661 1319.0
-621.6448 163.77661 1319.0
-614.2147 163.77661 1319.0
-609.0849 164.39745 1324.0
-599.3547 163.77661 1319.0
-594.1685 164.39745 1324.0
-584.4947 163.77661 1319.0
-579.25214 164.39745 1324.0
-573.9533 165.01828 1329.0
-564.3358 164.39745 1324.0
-556.87756 164.39745 1324.0
-549.41943 164.39745 1324.0
-541.96124 164.39745 1324.0
-534.50305 164.39745 1324.0
-529.0352 165.01828 1329.0
-521.5489 165.01828 1329.0
-515.9966 165.63911 1334.0
-508.48203 165.63911 1334.0
-502.8452 166.25995 1339.0
-495.30255 166.25995 1339.0
-487.75986 166.25995 1339.0
-480.2172 166.25995 1339.0
-472.67447 166.25995 1339.0
-465.1318 166.25995 1339.0
-457.58914 166.25995 1339.0
-450.04645 166.25995 1339.0
-442.50378 166.25995 1339.0
-434.9611 166.25995 1339.0
-427.41843 166.25995 1339.0
-419.87576 166.25995 1339.0
-413.87277 166.88078 1344.0
-406.30194 166.88078 1344.0
-398.73108 166.88078 1344.0
-391.16025 166.88078 1344.0
-382.16238 166.25995 1339.0
-374.6197 166.25995 1339.0
-367.07703 166.25995 1339.0
-359.5343 166.25995 1339.0
-351.99164 166.25995 1339.0
-345.7352 166.88078 1344.0
-338.16434 166.88078 1344.0
-330.5935 166.88078 1344.0
-321.82092 166.25995 1339.0
-315.4518 166.88078 1344.0
-307.88098 166.88078 1344.0
-301.6508 167.6258 1350.0
-294.04617 167.6258 1350.0
-286.4415 167.6258 1350.0
-279.8696 168.24663 1355.0
-177.40598 109.63969 883.0
-172.0414 109.39135 881.0
-167.458 109.63969 883.0
-162.48396 109.63969 883.0
-195.90874 168.24663 1355.0
-188.2759 168.24663 1355.0
-180.64313 168.24663 1355.0
-173.01028 168.24663 1355.0
-165.37749 168.24663 1355.0
-157.7447 168.24663 1355.0
-150.11186 168.24663 1355.0
-142.47908 168.24663 1355.0
-135.34383 168.86746 1360.0
-127.68288 168.86746 1360.0
-120.02192 168.86746 1360.0
-112.36092 168.86746 1360.0
-104.69997 168.86746 1360.0
-97.03897 168.86746 1360.0
-89.37801 168.86746 1360.0
-81.71706 168.86746 1360.0
-74.382774 169.61246 1366.0
-66.15101 168.24663 1355.0
-58.734104 168.86746 1360.0
-51.07315 168.86746 1360.0
-43.60372 169.61246 1366.0
-35.751198 168.86746 1360.0
-28.214169 169.61246 1366.0
-20.594477 170.23329 1371.0
-12.871561 170.23329 1371.0
-5.148644 170.23329 1371.0
2.5536187 168.86746 1360.0
10.214669 168.86746 1360.0
17.875622 168.86746 1360.0
25.649237 169.61246 1366.0
33.343987 169.61246 1366.0
41.188953 170.23329 1371.0
48.91197 170.23329 1371.0
56.634884 170.23329 1371.0
64.3578 170.23329 1371.0
72.08072 170.23329 1371.0
80.09467 170.85414 1376.0
87.84586 170.85414 1376.0
95.59694 170.85414 1376.0
103.34802 170.85414 1376.0
111.099106 170.85414 1376.0
118.85018 170.85414 1376.0
126.60137 170.85414 1376.0
134.93828 171.59914 1382.0
142.72318 171.59914 1382.0
150.50806 171.59914 1382.0
158.29294 171.59914 1382.0
166.0779 171.59914 1382.0
174.61761 172.34415 1388.0
182.4363 172.34415 1388.0
190.25499 172.34415 1388.0
198.78717 172.96498 1393.0
206.63412 172.96498 1393.0
214.48096 172.96498 1393.0
222.3278 172.96498 1393.0
230.17467 172.96498 1393.0
239.0467 173.70999 1399.0
246.92746 173.70999 1399.0
254.80809 173.70999 1399.0
262.68875 173.70999 1399.0
270.5694 173.70999 1399.0
279.4452 174.33083 1404.0
288.58212 175.07582 1410.0
295.2629 174.33083 1404.0
303.17172 174.33083 1404.0
311.08054 174.33083 1404.0
318.98935 174.33083 1404.0
326.89822 174.33083 1404.0
336.23788 175.07582 1410.0
344.18045 175.07582 1410.0
352.12305 175.07582 1410.0
361.59787 175.82083 1416.0
369.57437 175.82083 1416.0
377.55078 175.82083 1416.0
385.5272 175.82083 1416.0
395.171 176.56583 1422.0
403.18115 176.56583 1422.0
409.45648 175.82083 1416.0
417.4329 175.82083 1416.0
425.4093 175.82083 1416.0
433.3857 175.82083 1416.0
445.10245 177.31082 1428.0
453.14658 177.31082 1428.0
459.25278 176.56583 1422.0
469.23456 177.31082 1428.0
477.27856 177.31082 1428.0
487.36176 178.05585 1434.0
495.43964 178.05585 1434.0
503.51743 178.05585 1434.0
511.59525 178.05585 1434.0
519.67303 178.05585 1434.0
529.959 178.80084 1440.0
538.0707 178.80084 1440.0
546.1823 178.80084 1440.0
554.2939 178.80084 1440.0
562.40546 178.80084 1440.0
572.8942 179.54584 1446.0
581.03973 179.54584 1446.0
589.1851 179.54584 1446.0
594.852 178.80084 1440.0
605.47595 179.54584 1446.0
613.62134 179.54584 1446.0
621.76685 179.54584 1446.0
627.29846 178.80084 1440.0
638.0576 179.54584 1446.0
646.20306 179.54584 1446.0
657.0636 180.29085 1452.0
667.9918 181.03584 1458.0
676.2048 181.03584 1458.0
684.4178 181.03584 1458.0
692.63074 181.03584 1458.0
700.84375 181.03584 1458.0
709.0569 181.03584 1458.0
717.26984 181.03584 1458.0
725.48285 181.03584 1458.0
733.6958 181.03584 1458.0
741.9088 181.03584 1458.0
753.2088 181.78085 1464.0
761.4556 181.78085 1464.0
766.5479 181.03584 1458.0
777.9492 181.78085 1464.0
789.4181 182.52586 1470.0
797.69885 182.52586 1470.0
802.6897 181.78085 1464.0
810.93646 181.78085 1464.0
819.1833 181.78085 1464.0
827.43005 181.78085 1464.0
839.10187 182.52586 1470.0
843.92377 181.78085 1464.0
852.17053 181.78085 1464.0
856.891 181.03584 1458.0
865.104 181.03584 1458.0
880.50494 182.52586 1470.0
-758.5659 153.96176 1299.0
-751.2485 153.96176 1299.0
-746.7946 154.55437 1304.0
-736.6138 153.96176 1299.0
-729.2964 153.96176 1299.0
-721.9791 153.96176 1299.0
-717.41254 154.55437 1304.0
-710.067 154.55437 1304.0
-702.7215 154.55437 1304.0
-698.04224 155.14699 1309.0
-690.66864 155.14699 1309.0
-683.2949 155.14699 1309.0
-678.50305 155.73961 1314.0
-671.1012 155.73961 1314.0
-666.2248 156.33221 1319.0
-656.29755 155.73961 1314.0
-646.42645 155.14699 1309.0
-643.9348 156.33221 1319.0
-636.50476 156.33221 1319.0
-631.45935 156.92484 1324.0
-624.0013 156.92484 1324.0
-616.543 156.92484 1324.0
-609.0849 156.92484 1324.0
-599.3547 156.33221 1319.0
-594.1685 156.92484 1324.0
-584.4947 156.33221 1319.0
-579.25214 156.92484 1324.0
-573.9533 157.51746 1329.0
-566.467 157.51746 1329.0
-556.87756 156.92484 1324.0
-549.41943 156.92484 1324.0
-544.0079 157.51746 1329.0
-536.52155 157.51746 1329.0
-531.0256 158.11008 1334.0
-523.51105 158.11008 1334.0
-515.9966 158.11008 1334.0
-508.48203 158.11008 1334.0
-499.08984 157.51746 1329.0
-493.45303 158.11008 1334.0
-487.75986 158.70268 1339.0
-480.2172 158.70268 1339.0
-472.67447 158.70268 1339.0
-465.1318 158.70268 1339.0
-457.58914 158.70268 1339.0
-450.04645 158.70268 1339.0
-442.50378 158.70268 1339.0
-434.9611 158.70268 1339.0
-427.41843 158.70268 1339.0
-419.87576 158.70268 1339.0
-413.87277 159.2953 1344.0
-406.30194 159.2953 1344.0
-397.2477 158.70268 1339.0
-389.70505 158.70268 1339.0
-380.73532 158.11008 1334.0
-374.6197 158.70268 1339.0
-367.07703 158.70268 1339.0
-359.5343 158.70268 1339.0
-351.99164 158.70268 1339.0
-344.44897 158.70268 1339.0
-336.90628 158.70268 1339.0
-329.36362 158.70268 1339.0
-321.82092 158.70268 1339.0
-314.27826 158.70268 1339.0
-307.88098 159.2953 1344.0
-300.31012 159.2953 1344.0
-292.7393 159.2953 1344.0
-286.4415 160.00644 1350.0
-279.8696 160.59904 1355.0
-177.40598 104.65607 883.0
-172.0414 104.41902 881.0
-167.458 104.65607 883.0
-162.48396 104.65607 883.0
-195.18582 160.00644 1350.0
-188.2759 160.59904 1355.0
-180.64313 160.59904 1355.0
-173.01028 160.59904 1355.0
-165.37749 160.59904 1355.0
-157.7447 160.59904 1355.0
-150.11186 160.59904 1355.0
-142.47908 160.59904 1355.0
-134.84624 160.59904 1355.0
-127.213455 160.59904 1355.0
-119.580666 160.59904 1355.0
-112.36092 161.19167 1360.0
-104.69997 161.19167 1360.0
-97.03897 161.19167 1360.0
-89.37801 161.19167 1360.0
-81.71706 161.19167 1360.0
-74.05606 161.19167 1360.0
-66.3951 161.19167 1360.0
-58.734104 161.19167 1360.0
-51.298473 161.90282 1366.0
-43.60372 161.90282 1366.0
-35.751198 161.19167 1360.0
-28.090242 161.19167 1360.0
-20.51937 161.90282 1366.0
-12.871561 162.49542 1371.0
-5.148644 162.49542 1371.0
2.5648844 161.90282 1366.0
10.214669 161.19167 1360.0
17.875622 161.19167 1360.0
25.649237 161.90282 1366.0
33.343987 161.90282 1366.0
41.188953 162.49542 1371.0
48.91197 162.49542 1371.0
56.428337 161.90282 1366.0
64.3578 162.49542 1371.0
72.08072 162.49542 1371.0
80.09467 163.08804 1376.0
87.84586 163.08804 1376.0
95.24957 162.49542 1371.0
103.34802 163.08804 1376.0
111.099106 163.08804 1376.0
118.85018 163.08804 1376.0
126.60137 163.08804 1376.0
134.93828 163.7992 1382.0
143.3428 164.51031 1388.0
150.50806 163.7992 1382.0
158.29294 163.7992 1382.0
166.0779 163.7992 1382.0
173.8628 163.7992 1382.0
181.64767 163.7992 1382.0
189.43254 163.7992 1382.0
198.07365 164.51031 1388.0
205.89244 164.51031 1388.0
214.48096 165.10294 1393.0
222.3278 165.10294 1393.0
230.17467 165.10294 1393.0
238.0215 165.10294 1393.0
246.92746 165.81409 1399.0
254.80809 165.81409 1399.0
262.68875 165.81409 1399.0
270.5694 165.81409 1399.0
279.4452 166.40671 1404.0
287.35413 166.40671 1404.0
295.2629 166.40671 1404.0
303.17172 166.40671 1404.0
311.08054 166.40671 1404.0
318.98935 166.40671 1404.0
328.29526 167.11783 1410.0
336.23788 167.11783 1410.0
344.18045 167.11783 1410.0
352.12305 167.11783 1410.0
361.59787 167.82898 1416.0
369.57437 167.82898 1416.0
377.55078 167.82898 1416.0
385.5272 167.82898 1416.0
393.50357 167.82898 1416.0
403.18115 168.54012 1422.0
409.45648 167.82898 1416.0
417.4329 167.82898 1416.0
425.4093 167.82898 1416.0
435.2221 168.54012 1422.0
445.10245 169.25125 1428.0
453.14658 169.25125 1428.0
459.25278 168.54012 1422.0
469.23456 169.25125 1428.0
477.27856 169.25125 1428.0
487.36176 169.9624 1434.0
495.43964 169.9624 1434.0
503.51743 169.9624 1434.0
511.59525 169.9624 1434.0
519.67303 169.9624 1434.0
527.75085 169.9624 1434.0
538.0707 170.67354 1440.0
546.1823 170.67354 1440.0
554.2939 170.67354 1440.0
562.40546 170.67354 1440.0
570.5171 170.67354 1440.0
581.03973 171.38467 1446.0
589.1851 171.38467 1446.0
594.852 170.67354 1440.0
605.47595 171.38467 1446.0
613.62134 171.38467 1446.0
621.76685 171.38467 1446.0
629.9122 171.38467 1446.0
638.0576 171.38467 1446.0
648.88434 172.09583 1452.0
659.7787 172.80695 1458.0
667.9918 172.80695 1458.0
676.2048 172.80695 1458.0
681.60126 172.09583 1452.0
692.63074 172.80695 1458.0
700.84375 172.80695 1458.0
706.1389 172.09583 1452.0
714.3181 172.09583 1452.0
725.48285 172.80695 1458.0
733.6958 172.80695 1458.0
741.9088 172.80695 1458.0
753.2088 173.5181 1464.0
761.4556 173.5181 1464.0
766.5479 172.80695 1458.0
777.9492 173.5181 1464.0
786.19604 173.5181 1464.0
794.4429 173.5181 1464.0
802.6897 173.5181 1464.0
810.93646 173.5181 1464.0
819.1833 173.5181 1464.0
827.43005 173.5181 1464.0
839.10187 174.22923 1470.0
843.92377 173.5181 1464.0
852.17053 173.5181 1464.0
860.41736 173.5181 1464.0
868.6641 173.5181 1464.0
880.50494 174.22923 1470.0
-758.5659 146.63025 1299.0
-751.2485 146.63025 1299.0
-746.7946 147.19464 1304.0
-739.4491 147.19464 1304.0
-729.2964 146.63025 1299.0
-721.9791 146.63025 1299.0
-717.41254 147.19464 1304.0
-710.067 147.19464 1304.0
-705.416 147.75905 1309.0
-700.70856 148.32344 1314.0
-693.3068 148.32344 1314.0
-683.2949 147.75905 1309.0
-675.9212 147.75905 1309.0
-668.54755 147.75905 1309.0
-663.6993 148.32344 1314.0
-656.29755 148.32344 1314.0
-648.8956 148.32344 1314.0
-641.4938 148.32344 1314.0
-636.50476 148.88783 1319.0
-629.0747 148.88783 1319.0
-621.6448 148.88783 1319.0
-616.543 149.45222 1324.0
-609.0849 149.45222 1324.0
-601.6267 149.45222 1324.0
-591.9247 148.88783 1319.0
-584.4947 148.88783 1319.0
-579.25214 149.45222 1324.0
-571.79395 149.45222 1324.0
-566.467 150.01663 1329.0
-558.9806 150.01663 1329.0
-551.49426 150.01663 1329.0
-544.0079 150.01663 1329.0
-536.52155 150.01663 1329.0
-531.0256 150.58102 1334.0
-523.51105 150.58102 1334.0
-515.9966 150.58102 1334.0
-508.48203 150.58102 1334.0
-499.08984 150.01663 1329.0
-491.6035 150.01663 1329.0
-485.93848 150.58102 1334.0
-480.2172 151.14542 1339.0
-472.67447 151.14542 1339.0
-465.1318 151.14542 1339.0
-457.58914 151.14542 1339.0
-450.04645 151.14542 1339.0
-442.50378 151.14542 1339.0
-434.9611 151.14542 1339.0
-427.41843 151.14542 1339.0
-421.44363 151.70982 1344.0
-413.87277 151.70982 1344.0
-406.30194 151.70982 1344.0
-398.73108 151.70982 1344.0
-389.70505 151.14542 1339.0
-382.16238 151.14542 1339.0
-374.6197 151.14542 1339.0
-367.07703 151.14542 1339.0
-360.87686 151.70982 1344.0
-353.30603 151.70982 1344.0
-344.44897 151.14542 1339.0
-336.90628 151.14542 1339.0
-329.36362 151.14542 1339.0
-321.82092 151.14542 1339.0
-315.4518 151.70982 1344.0
-307.88098 151.70982 1344.0
-300.31012 151.70982 1344.0
-292.7393 151.70982 1344.0
-285.16843 151.70982 1344.0
-278.83688 152.3871 1350.0
-177.40598 99.67245 883.0
-172.0414 99.446686 881.0
-167.458 99.67245 883.0
-162.48396 99.67245 883.0
-195.18582 152.3871 1350.0
-188.2759 152.95149 1355.0
-180.64313 152.95149 1355.0
-173.01028 152.95149 1355.0
-165.37749 152.95149 1355.0
-157.7447 152.95149 1355.0
-150.11186 152.95149 1355.0
-142.47908 152.95149 1355.0
-134.84624 152.95149 1355.0
-127.213455 152.95149 1355.0
-119.580666 152.95149 1355.0
-112.36092 153.51588 1360.0
-104.69997 153.51588 1360.0
-97.03897 153.51588 1360.0
-89.049416 152.95149 1355.0
-81.71706 153.51588 1360.0
-74.05606 153.51588 1360.0
-66.3951 153.51588 1360.0
-58.993225 154.19316 1366.0
-51.298473 154.19316 1366.0
-43.412197 153.51588 1360.0
-35.751198 153.51588 1360.0
-28.090242 153.51588 1360.0
-20.51937 154.19316 1366.0
-12.824618 154.19316 1366.0
-5.148644 154.75755 1371.0
2.5536187 153.51588 1360.0
10.214669 153.51588 1360.0
17.954485 154.19316 1366.0
25.649237 154.19316 1366.0
33.466038 154.75755 1371.0
41.188953 154.75755 1371.0
49.09035 155.32196 1376.0
56.634884 154.75755 1371.0
64.3578 154.75755 1371.0
72.3436 155.32196 1376.0
80.09467 155.32196 1376.0
87.52665 154.75755 1371.0
95.24957 154.75755 1371.0
103.34802 155.32196 1376.0
111.099106 155.32196 1376.0
118.85018 155.32196 1376.0
126.60137 155.32196 1376.0
134.35245 155.32196 1376.0
142.10353 155.32196 1376.0
149.85461 155.32196 1376.0
158.29294 155.99924 1382.0
166.0779 155.99924 1382.0
173.8628 155.99924 1382.0
181.64767 155.99924 1382.0
190.25499 156.67651 1388.0
198.07365 156.67651 1388.0
205.89244 156.67651 1388.0
214.48096 157.2409 1393.0
222.3278 157.2409 1393.0
230.17467 157.2409 1393.0
238.0215 157.2409 1393.0
245.86844 157.2409 1393.0
254.80809 157.91818 1399.0
262.68875 157.91818 1399.0
270.5694 157.91818 1399.0
278.45 157.91818 1399.0
286.33078 157.91818 1399.0
295.2629 158.48257 1404.0
302.09204 157.91818 1399.0
309.9727 157.91818 1399.0
318.98935 158.48257 1404.0
328.29526 159.15985 1410.0
336.23788 159.15985 1410.0
344.18045 159.15985 1410.0
352.12305 159.15985 1410.0
361.59787 159.83713 1416.0
369.57437 159.83713 1416.0
377.55078 159.83713 1416.0
385.5272 159.83713 1416.0
393.50357 159.83713 1416.0
403.18115 160.5144 1422.0
409.45648 159.83713 1416.0
417.4329 159.83713 1416.0
425.4093 159.83713 1416.0
435.2221 160.5144 1422.0
445.10245 161.19168 1428.0
451.2426 160.5144 1422.0
459.25278 160.5144 1422.0
467.263 160.5144 1422.0
477.27856 161.19168 1428.0
487.36176 161.86896 1434.0
495.43964 161.86896 1434.0
503.51743 161.86896 1434.0
511.59525 161.86896 1434.0
519.67303 161.86896 1434.0
527.75085 161.86896 1434.0
538.0707 162.54623 1440.0
546.1823 162.54623 1440.0
554.2939 162.54623 1440.0
562.40546 162.54623 1440.0
570.5171 162.54623 1440.0
578.6288 162.54623 1440.0
586.7404 162.54623 1440.0
597.33057 163.22351 1446.0
607.9883 163.90079 1452.0
613.62134 163.22351 1446.0
621.76685 163.22351 1446.0
627.29846 162.54623 1440.0
638.0576 163.22351 1446.0
648.88434 163.90079 1452.0
657.0636 163.90079 1452.0
667.9918 164.57806 1458.0
676.2048 164.57806 1458.0
684.4178 164.57806 1458.0
692.63074 164.57806 1458.0
700.84375 164.57806 1458.0
709.0569 164.57806 1458.0
714.3181 163.90079 1452.0
725.48285 164.57806 1458.0
733.6958 164.57806 1458.0
741.9088 164.57806 1458.0
753.2088 165.25534 1464.0
761.4556 165.25534 1464.0
769.7024 165.25534 1464.0
777.9492 165.25534 1464.0
786.19604 165.25534 1464.0
794.4429 165.25534 1464.0
802.6897 165.25534 1464.0
810.93646 165.25534 1464.0
819.1833 165.25534 1464.0
830.82117 165.93262 1470.0
839.10187 165.93262 1470.0
843.92377 165.25534 1464.0
852.17053 165.25534 1464.0
860.41736 165.25534 1464.0
872.2242 165.93262 1470.0
884.69775 166.72276 1477.0
-767.3253 140.90727 1314.0
-754.14014 139.83492 1304.0
-743.93115 139.29874 1299.0
-736.6138 139.29874 1299.0
-732.1035 139.83492 1304.0
-724.7581 139.83492 1304.0
-717.41254 139.83492 1304.0
-712.7897 140.3711 1309.0
-705.416 140.3711 1309.0
-698.04224 140.3711 1309.0
-693.3068 140.90727 1314.0
-683.2949 140.3711 1309.0
-678.50305 140.90727 1314.0
-668.54755 140.3711 1309.0
-661.1738 140.3711 1309.0
-656.29755 140.90727 1314.0
-648.8956 140.90727 1314.0
-641.4938 140.90727 1314.0
-636.50476 141.44345 1319.0
-629.0747 141.44345 1319.0
-624.0013 141.97963 1324.0
-616.543 141.97963 1324.0
-609.0849 141.97963 1324.0
-601.6267 141.97963 1324.0
-591.9247 141.44345 1319.0
-586.7103 141.97963 1324.0
-577.06464 141.44345 1319.0
-569.63464 141.44345 1319.0
-564.3358 141.97963 1324.0
-558.9806 142.51581 1329.0
-551.49426 142.51581 1329.0
-544.0079 142.51581 1329.0
-538.5401 143.05197 1334.0
-531.0256 143.05197 1334.0
-523.51105 143.05197 1334.0
-515.9966 143.05197 1334.0
-508.48203 143.05197 1334.0
-499.08984 142.51581 1329.0
-491.6035 142.51581 1329.0
-485.93848 143.05197 1334.0
-478.42398 143.05197 1334.0
-472.67447 143.58815 1339.0
-465.1318 143.58815 1339.0
-457.58914 143.58815 1339.0
-450.04645 143.58815 1339.0
-444.15616 144.12433 1344.0
-436.5853 144.12433 1344.0
-429.01447 144.12433 1344.0
-421.44363 144.12433 1344.0
-413.87277 144.12433 1344.0
-406.30194 144.12433 1344.0
-398.73108 144.12433 1344.0
-391.16025 144.12433 1344.0
-382.16238 143.58815 1339.0
-374.6197 143.58815 1339.0
-367.07703 143.58815 1339.0
-360.87686 144.12433 1344.0
-351.99164 143.58815 1339.0
-344.44897 143.58815 1339.0
-338.16434 144.12433 1344.0
-330.5935 144.12433 1344.0
-323.02264 144.12433 1344.0
-315.4518 144.12433 1344.0
-307.88098 144.12433 1344.0
-300.31012 144.12433 1344.0
-292.7393 144.12433 1344.0
-285.16843 144.12433 1344.0
-277.5976 144.12433 1344.0
-270.02676 144.12433 1344.0
-172.0414 94.47436 881.0
-167.07869 94.47436 881.0
-162.48396 94.68883 883.0
-195.18582 144.76775 1350.0
-188.2759 145.30392 1355.0
-180.64313 145.30392 1355.0
-173.01028 145.30392 1355.0
-165.37749 145.30392 1355.0
-157.7447 145.30392 1355.0
-150.11186 145.30392 1355.0
-142.47908 145.30392 1355.0
-134.84624 145.30392 1355.0
-127.213455 145.30392 1355.0
-119.580666 145.30392 1355.0
-112.36092 145.8401 1360.0
-104.69997 145.8401 1360.0
-97.03897 145.8401 1360.0
-89.049416 145.30392 1355.0
-81.71706 145.8401 1360.0
-74.05606 145.8401 1360.0
-66.68803 146.4835 1366.0
-58.993225 146.4835 1366.0
-51.298473 146.4835 1366.0
-43.412197 145.8401 1360.0
-35.751198 145.8401 1360.0
-28.090242 145.8401 1360.0
-20.51937 146.4835 1366.0
-12.768288 145.8401 1360.0
-5.129867 146.4835 1366.0
2.5536187 145.8401 1360.0
10.214669 145.8401 1360.0
17.875622 145.8401 1360.0
25.536575 145.8401 1360.0
33.343987 146.4835 1366.0
41.188953 147.01968 1371.0
48.91197 147.01968 1371.0
56.634884 147.01968 1371.0
64.3578 147.01968 1371.0
72.3436 147.55586 1376.0
79.80364 147.01968 1371.0
87.52665 147.01968 1371.0
95.59694 147.55586 1376.0
103.34802 147.55586 1376.0
111.099106 147.55586 1376.0
118.85018 147.55586 1376.0
126.60137 147.55586 1376.0
134.35245 147.55586 1376.0
142.10353 147.55586 1376.0
149.85461 147.55586 1376.0
158.29294 148.19928 1382.0
165.35687 147.55586 1376.0
173.8628 148.19928 1382.0
181.64767 148.19928 1382.0
190.25499 148.8427 1388.0
198.07365 148.8427 1388.0
206.63412 149.37888 1393.0
214.48096 149.37888 1393.0
222.3278 149.37888 1393.0
230.17467 149.37888 1393.0
238.0215 149.37888 1393.0
245.86844 149.37888 1393.0
253.71527 149.37888 1393.0
262.68875 150.02228 1399.0
270.5694 150.02228 1399.0
278.45 150.02228 1399.0
286.33078 150.02228 1399.0
294.2114 150.02228 1399.0
302.09204 150.02228 1399.0
311.08054 150.55846 1404.0
320.35254 151.20187 1410.0
328.29526 151.20187 1410.0
336.23788 151.20187 1410.0
345.64505 151.84528 1416.0
353.62146 151.84528 1416.0
361.59787 151.84528 1416.0
369.57437 151.84528 1416.0
377.55078 151.84528 1416.0
385.5272 151.84528 1416.0
395.171 152.4887 1422.0
403.18115 152.4887 1422.0
409.45648 151.84528 1416.0
417.4329 151.84528 1416.0
427.21188 152.4887 1422.0
435.2221 152.4887 1422.0
445.10245 153.13211 1428.0
453.14658 153.13211 1428.0
459.25278 152.4887 1422.0
467.263 152.4887 1422.0
477.27856 153.13211 1428.0
487.36176 153.77551 1434.0
495.43964 153.77551 1434.0
503.51743 153.77551 1434.0
511.59525 153.77551 1434.0
519.67303 153.77551 1434.0
527.75085 153.77551 1434.0
538.0707 154.41893 1440.0
546.1823 154.41893 1440.0
554.2939 154.41893 1440.0
562.40546 154.41893 1440.0
570.5171 154.41893 1440.0
578.6288 154.41893 1440.0
586.7404 154.41893 1440.0
597.33057 155.06235 1446.0
605.47595 155.06235 1446.0
613.62134 155.06235 1446.0
621.76685 155.06235 1446.0
627.29846 154.41893 1440.0
638.0576 155.06235 1446.0
646.20306 155.06235 1446.0
657.0636 155.70575 1452.0
665.2428 155.70575 1452.0
673.42206 155.70575 1452.0
684.4178 156.34917 1458.0
692.63074 156.34917 1458.0
700.84375 156.34917 1458.0
709.0569 156.34917 1458.0
714.3181 155.70575 1452.0
722.4973 155.70575 1452.0
733.6958 156.34917 1458.0
741.9088 156.34917 1458.0
750.12195 156.34917 1458.0
758.3349 156.34917 1458.0
769.7024 156.99257 1464.0
777.9492 156.99257 1464.0
786.19604 156.99257 1464.0
791.187 156.34917 1458.0
802.6897 156.99257 1464.0
810.93646 156.99257 1464.0
822.5406 157.636 1470.0
830.82117 157.636 1470.0
839.10187 157.636 1470.0
843.92377 156.99257 1464.0
852.17053 156.99257 1464.0
860.41736 156.99257 1464.0
872.2242 157.636 1470.0
884.69775 158.38663 1477.0
-761.4857 132.47519 1304.0
-751.2485 131.96724 1299.0
-743.93115 131.96724 1299.0
-739.4491 132.47519 1304.0
-732.1035 132.47519 1304.0
-724.7581 132.47519 1304.0
-714.6617 131.96724 1299.0
-710.067 132.47519 1304.0
-705.416 132.98315 1309.0
-698.04224 132.98315 1309.0
-690.66864 132.98315 1309.0
-680.68494 132.47519 1304.0
-675.9212 132.98315 1309.0
-668.54755 132.98315 1309.0
-663.6993 133.4911 1314.0
-656.29755 133.4911 1314.0
-651.3648 133.99907 1319.0
-643.9348 133.99907 1319.0
-634.092 133.4911 1314.0
-631.45935 134.50702 1324.0
-621.6448 133.99907 1319.0
-616.543 134.50702 1324.0
-606.7847 133.99907 1319.0
-599.3547 133.99907 1319.0
-594.1685 134.50702 1324.0
-586.7103 134.50702 1324.0
-579.25214 134.50702 1324.0
-571.79395 134.50702 1324.0
-566.467 135.01497 1329.0
-558.9806 135.01497 1329.0
-551.49426 135.01497 1329.0
-544.0079 135.01497 1329.0
-536.52155 135.01497 1329.0
-531.0256 135.52293 1334.0
-521.5489 135.01497 1329.0
-515.9966 135.52293 1334.0
-508.48203 135.52293 1334.0
-500.96753 135.52293 1334.0
-493.45303 135.52293 1334.0
-485.93848 135.52293 1334.0
-480.2172 136.03088 1339.0
-472.67447 136.03088 1339.0
-465.1318 136.03088 1339.0
-457.58914 136.03088 1339.0
-450.04645 136.03088 1339.0
-442.50378 136.03088 1339.0
-436.5853 136.53885 1344.0
-429.01447 136.53885 1344.0
-421.44363 136.53885 1344.0
-413.87277 136.53885 1344.0
-406.30194 136.53885 1344.0
-398.73108 136.53885 1344.0
-391.16025 136.53885 1344.0
-383.58942 136.53885 1344.0
-374.6197 136.03088 1339.0
-367.07703 136.03088 1339.0
-360.87686 136.53885 1344.0
-351.99164 136.03088 1339.0
-344.44897 136.03088 1339.0
-338.16434 136.53885 1344.0
-329.36362 136.03088 1339.0
-323.02264 136.53885 1344.0
-315.4518 136.53885 1344.0
-307.88098 136.53885 1344.0
-300.31012 136.53885 1344.0
-292.7393 136.53885 1344.0
-286.4415 137.14839 1350.0
-279.8696 137.65636 1355.0
-271.23224 137.14839 1350.0
-171.65085 89.29885 879.0
-166.3201 89.095665 877.0
-161.37988 89.095665 877.0
-195.90874 137.65636 1355.0
-188.2759 137.65636 1355.0
-180.64313 137.65636 1355.0
-173.01028 137.65636 1355.0
-165.37749 137.65636 1355.0
-157.7447 137.65636 1355.0
