ply
format ascii 1.0
element vertex 1735
property float x
property float y
property float z
end_header
-406.30194 318.5906 1344.0
-400.5111 320.01288 1350.0
-394.3617 321.1981 1355.0
-385.30188 320.01288 1350.0
-377.6972 320.01288 1350.0
-370.09256 320.01288 1350.0
-362.48788 320.01288 1350.0
-354.8833 320.01288 1350.0
-348.5649 321.1981 1355.0
-340.93207 321.1981 1355.0
-333.29926 321.1981 1355.0
-324.4647 320.01288 1350.0
-316.86008 320.01288 1350.0
-310.40088 321.1981 1355.0
-301.6508 320.01288 1350.0
-295.13522 321.1981 1355.0
-287.50238 321.1981 1355.0
-280.90234 322.38333 1360.0
-273.24136 322.38333 1360.0
-186.88266 226.85358 957.0
-181.49182 226.85358 957.0
-176.469 227.32767 959.0
-171.60204 228.03882 962.0
-167.21951 229.46109 968.0
-163.43782 231.83154 978.0
-153.35463 233.25383 984.0
-135.34383 322.38333 1360.0
-127.68288 322.38333 1360.0
-120.55144 323.80563 1366.0
-112.85663 323.80563 1366.0
-105.16188 323.80563 1366.0
-97.46708 323.80563 1366.0
-90.10092 324.99084 1371.0
-82.378006 324.99084 1371.0
-74.92731 326.1761 1376.0
-67.17622 326.1761 1376.0
-59.42509 326.1761 1376.0
-51.67401 326.1761 1376.0
-43.92293 326.1761 1376.0
-36.1718 326.1761 1376.0
-28.420717 326.1761 1376.0
-20.669584 326.1761 1376.0
-12.9748335 327.5984 1382.0
-5.1899533 327.5984 1382.0
2.583661 326.1761 1376.0
10.334842 326.1761 1376.0
18.164787 327.5984 1382.0
25.837006 326.1761 1376.0
33.58809 326.1761 1376.0
41.33917 326.1761 1376.0
49.09035 326.1761 1376.0
56.841434 326.1761 1376.0
64.87417 327.5984 1382.0
72.3436 326.1761 1376.0
80.09467 326.1761 1376.0
88.22891 327.5984 1382.0
96.01379 327.5984 1382.0
104.24931 329.02063 1388.0
112.06799 329.02063 1388.0
119.36842 327.5984 1382.0
127.70545 329.02063 1388.0
136.01233 330.20587 1393.0
143.85918 330.20587 1393.0
151.70601 330.20587 1393.0
159.55286 330.20587 1393.0
168.12085 331.62817 1399.0
176.00146 331.62817 1399.0
183.88213 331.62817 1399.0
191.76277 331.62817 1399.0
199.6434 331.62817 1399.0
208.26584 332.81342 1404.0
215.40479 331.62817 1399.0
224.08345 332.81342 1404.0
231.99226 332.81342 1404.0
239.90106 332.81342 1404.0
247.80998 332.81342 1404.0
254.80809 331.62817 1399.0
264.7542 334.23566 1410.0
272.6968 334.23566 1410.0
280.6394 334.23566 1410.0
288.58212 334.23566 1410.0
297.78653 335.65796 1416.0
305.76294 335.65796 1416.0
313.73935 335.65796 1416.0
321.71573 335.65796 1416.0
329.69226 335.65796 1416.0
339.09943 337.08023 1422.0
347.10965 337.08023 1422.0
355.11987 337.08023 1422.0
364.66223 338.5025 1428.0
372.7064 338.5025 1428.0
379.15054 337.08023 1422.0
387.16077 337.08023 1422.0
395.171 337.08023 1422.0
404.88235 338.5025 1428.0
412.92648 338.5025 1428.0
420.97046 338.5025 1428.0
430.81705 339.9248 1434.0
438.89487 339.9248 1434.0
446.97266 339.9248 1434.0
456.95453 341.34708 1440.0
465.06613 341.34708 1440.0
473.17773 341.34708 1440.0
481.2893 341.34708 1440.0
489.4009 341.34708 1440.0
497.5126 341.34708 1440.0
505.62424 341.34708 1440.0
513.73584 341.34708 1440.0
519.67303 339.9248 1434.0
529.959 341.34708 1440.0
538.0707 341.34708 1440.0
546.1823 341.34708 1440.0
556.60345 342.76935 1446.0
562.40546 341.34708 1440.0
570.5171 341.34708 1440.0
578.6288 341.34708 1440.0
589.1851 342.76935 1446.0
594.852 341.34708 1440.0
602.96356 341.34708 1440.0
616.1675 344.19165 1452.0
624.34674 344.19165 1452.0
632.526 344.19165 1452.0
640.70514 344.19165 1452.0
648.88434 344.19165 1452.0
657.0636 344.19165 1452.0
665.2428 344.19165 1452.0
673.42206 344.19165 1452.0
684.4178 345.6139 1458.0
692.63074 345.6139 1458.0
700.84375 345.6139 1458.0
709.0569 345.6139 1458.0
717.26984 345.6139 1458.0
725.48285 345.6139 1458.0
733.6958 345.6139 1458.0
741.9088 345.6139 1458.0
750.12195 345.6139 1458.0
758.3349 345.6139 1458.0
766.5479 345.6139 1458.0
777.9492 347.0362 1464.0
782.9739 345.6139 1458.0
787.931 344.19165 1452.0
799.39996 345.6139 1458.0
810.93646 347.0362 1464.0
819.1833 347.0362 1464.0
827.43005 347.0362 1464.0
835.67694 347.0362 1464.0
847.38245 348.45847 1470.0
855.663 348.45847 1470.0
868.0576 350.1178 1477.0
876.3777 350.1178 1477.0
884.69775 350.1178 1477.0
-767.3253 304.06305 1314.0
-757.03174 302.90604 1309.0
-749.6581 302.90604 1309.0
-745.11975 304.06305 1314.0
-737.71783 304.06305 1314.0
-733.09503 305.22006 1319.0
-725.665 305.22006 1319.0
-718.235 305.22006 1319.0
-710.80493 305.22006 1319.0
-703.3749 305.22006 1319.0
-693.3068 304.06305 1314.0
-688.5149 305.22006 1319.0
-681.0849 305.22006 1319.0
-676.20856 306.37708 1324.0
-668.7503 306.37708 1324.0
-661.2922 306.37708 1324.0
-651.3648 305.22006 1319.0
-646.3758 306.37708 1324.0
-638.9176 306.37708 1324.0
-631.45935 306.37708 1324.0
-626.3578 307.5341 1329.0
-618.8714 307.5341 1329.0
-611.3851 307.5341 1329.0
-606.1707 308.6911 1334.0
-598.6562 308.6911 1334.0
-591.14166 308.6911 1334.0
-583.62714 308.6911 1334.0
-576.1127 308.6911 1334.0
-570.7293 309.8481 1339.0
-563.18665 309.8481 1339.0
-555.644 309.8481 1339.0
-548.10126 309.8481 1339.0
-538.5401 308.6911 1334.0
-531.0256 308.6911 1334.0
-525.47327 309.8481 1339.0
-519.8646 311.00513 1344.0
-512.2937 311.00513 1344.0
-504.7229 311.00513 1344.0
-497.15207 311.00513 1344.0
-487.75986 309.8481 1339.0
-480.2172 309.8481 1339.0
-472.67447 309.8481 1339.0
-466.86868 311.00513 1344.0
-459.29785 311.00513 1344.0
-451.727 311.00513 1344.0
-444.15616 311.00513 1344.0
-436.5853 311.00513 1344.0
-429.01447 311.00513 1344.0
-419.87576 309.8481 1339.0
-413.87277 311.00513 1344.0
-406.30194 311.00513 1344.0
-398.73108 311.00513 1344.0
-392.9065 312.39355 1350.0
-385.30188 312.39355 1350.0
-377.6972 312.39355 1350.0
-370.09256 312.39355 1350.0
-362.48788 312.39355 1350.0
-354.8833 312.39355 1350.0
-347.2787 312.39355 1350.0
-339.674 312.39355 1350.0
-333.29926 313.55057 1355.0
-325.6664 313.55057 1355.0
-318.03363 313.55057 1355.0
-310.40088 313.55057 1355.0
-302.768 313.55057 1355.0
-296.2243 314.70758 1360.0
-288.5633 314.70758 1360.0
-280.90234 314.70758 1360.0
-274.44687 316.09598 1366.0
-186.88266 221.4523 957.0
-181.49182 221.4523 957.0
-176.469 221.91512 959.0
-150.66579 314.70758 1360.0
-143.00484 314.70758 1360.0
-135.94093 316.09598 1366.0
-127.68288 314.70758 1360.0
-120.02192 314.70758 1360.0
-112.85663 316.09598 1366.0
-105.16188 316.09598 1366.0
-97.82384 317.253 1371.0
-90.42952 318.41 1376.0
-82.378006 317.253 1371.0
-74.65504 317.253 1371.0
-66.93213 317.253 1371.0
-59.20916 317.253 1371.0
-51.486244 317.253 1371.0
-43.92293 318.41 1376.0
-36.1718 318.41 1376.0
-28.420717 318.41 1376.0
-20.669584 318.41 1376.0
-12.9748335 319.7984 1382.0
-5.1899533 319.7984 1382.0
2.583661 318.41 1376.0
10.334842 318.41 1376.0
18.164787 319.7984 1382.0
25.949667 319.7984 1382.0
33.58809 318.41 1376.0
41.33917 318.41 1376.0
49.09035 318.41 1376.0
56.841434 318.41 1376.0
64.592514 318.41 1376.0
72.3436 318.41 1376.0
80.09467 318.41 1376.0
88.22891 319.7984 1382.0
96.01379 319.7984 1382.0
104.24931 321.18683 1388.0
112.06799 321.18683 1388.0
119.88667 321.18683 1388.0
127.70545 321.18683 1388.0
136.01233 322.34384 1393.0
143.85918 322.34384 1393.0
151.70601 322.34384 1393.0
159.55286 322.34384 1393.0
168.12085 323.73227 1399.0
176.00146 323.73227 1399.0
183.88213 323.73227 1399.0
191.76277 323.73227 1399.0
199.6434 323.73227 1399.0
208.26584 324.88928 1404.0
216.17464 324.88928 1404.0
224.08345 324.88928 1404.0
231.99226 324.88928 1404.0
239.90106 324.88928 1404.0
248.86899 326.2777 1410.0
255.71878 324.88928 1404.0
263.6276 324.88928 1404.0
272.6968 326.2777 1410.0
280.6394 326.2777 1410.0
288.58212 326.2777 1410.0
296.52472 326.2777 1410.0
305.76294 327.6661 1416.0
313.73935 327.6661 1416.0
320.35254 326.2777 1410.0
329.69226 327.6661 1416.0
339.09943 329.0545 1422.0
347.10965 329.0545 1422.0
355.11987 329.0545 1422.0
363.13004 329.0545 1422.0
369.57437 327.6661 1416.0
379.15054 329.0545 1422.0
387.16077 329.0545 1422.0
395.171 329.0545 1422.0
403.18115 329.0545 1422.0
412.92648 330.44293 1428.0
422.73923 331.83136 1434.0
430.81705 331.83136 1434.0
438.89487 331.83136 1434.0
446.97266 331.83136 1434.0
456.95453 333.2198 1440.0
465.06613 333.2198 1440.0
473.17773 333.2198 1440.0
481.2893 333.2198 1440.0
489.4009 333.2198 1440.0
497.5126 333.2198 1440.0
505.62424 333.2198 1440.0
515.8764 334.6082 1446.0
519.67303 331.83136 1434.0
529.959 333.2198 1440.0
538.0707 333.2198 1440.0
546.1823 333.2198 1440.0
556.60345 334.6082 1446.0
562.40546 333.2198 1440.0
570.5171 333.2198 1440.0
581.03973 334.6082 1446.0
589.1851 334.6082 1446.0
599.8091 335.99658 1452.0
607.9883 335.99658 1452.0
616.1675 335.99658 1452.0
621.76685 334.6082 1446.0
632.526 335.99658 1452.0
640.70514 335.99658 1452.0
648.88434 335.99658 1452.0
657.0636 335.99658 1452.0
662.4939 334.6082 1446.0
673.42206 335.99658 1452.0
681.60126 335.99658 1452.0
692.63074 337.385 1458.0
697.95966 335.99658 1452.0
709.0569 337.385 1458.0
714.3181 335.99658 1452.0
725.48285 337.385 1458.0
730.6765 335.99658 1452.0
738.8557 335.99658 1452.0
750.12195 337.385 1458.0
761.4556 338.77344 1464.0
772.85693 340.16187 1470.0
777.9492 338.77344 1464.0
786.19604 338.77344 1464.0
791.187 337.385 1458.0
802.6897 338.77344 1464.0
810.93646 338.77344 1464.0
819.1833 338.77344 1464.0
824.03894 337.385 1458.0
832.2521 337.385 1458.0
843.92377 338.77344 1464.0
852.17053 338.77344 1464.0
868.0576 341.78165 1477.0
876.3777 341.78165 1477.0
884.69775 341.78165 1477.0
-767.3253 296.64688 1314.0
-759.9234 296.64688 1314.0
-752.52155 296.64688 1314.0
-745.11975 296.64688 1314.0
-737.71783 296.64688 1314.0
-733.09503 297.77567 1319.0
-725.665 297.77567 1319.0
-718.235 297.77567 1319.0
-708.1105 296.64688 1314.0
-700.70856 296.64688 1314.0
-693.3068 296.64688 1314.0
-685.9049 296.64688 1314.0
-681.0849 297.77567 1319.0
-676.20856 298.90445 1324.0
-668.7503 298.90445 1324.0
-661.2922 298.90445 1324.0
-653.8339 298.90445 1324.0
-646.3758 298.90445 1324.0
-641.33044 300.03326 1329.0
-633.84406 300.03326 1329.0
-626.3578 300.03326 1329.0
-618.8714 300.03326 1329.0
-613.68524 301.16205 1334.0
-606.1707 301.16205 1334.0
-600.9 302.29083 1339.0
-591.14166 301.16205 1334.0
-583.62714 301.16205 1334.0
-573.9533 300.03326 1329.0
-570.7293 302.29083 1339.0
-563.18665 302.29083 1339.0
-555.644 302.29083 1339.0
-548.10126 302.29083 1339.0
-538.5401 301.16205 1334.0
-529.0352 300.03326 1329.0
-525.47327 302.29083 1339.0
-519.8646 303.41965 1344.0
-512.2937 303.41965 1344.0
-504.7229 303.41965 1344.0
-497.15207 303.41965 1344.0
-487.75986 302.29083 1339.0
-480.2172 302.29083 1339.0
-472.67447 302.29083 1339.0
-466.86868 303.41965 1344.0
-459.29785 303.41965 1344.0
-451.727 303.41965 1344.0
-444.15616 303.41965 1344.0
-436.5853 303.41965 1344.0
-429.01447 303.41965 1344.0
-421.44363 303.41965 1344.0
-413.87277 303.41965 1344.0
-408.11578 304.7742 1350.0
-398.73108 303.41965 1344.0
-391.16025 303.41965 1344.0
-385.30188 304.7742 1350.0
-377.6972 304.7742 1350.0
-370.09256 304.7742 1350.0
-362.48788 304.7742 1350.0
-354.8833 304.7742 1350.0
-347.2787 304.7742 1350.0
-339.674 304.7742 1350.0
-332.06937 304.7742 1350.0
-325.6664 305.90298 1355.0
-318.03363 305.90298 1355.0
-310.40088 305.90298 1355.0
-303.88522 307.03177 1360.0
-296.2243 307.03177 1360.0
-288.5633 307.03177 1360.0
-280.90234 307.03177 1360.0
-192.67535 216.50255 959.0
-186.88266 216.05104 957.0
-181.49182 216.05104 957.0
-176.10097 216.05104 957.0
-196.63165 307.03177 1360.0
-188.97064 307.03177 1360.0
-181.30971 307.03177 1360.0
-165.98773 307.03177 1360.0
-158.32678 307.03177 1360.0
-150.66579 307.03177 1360.0
-143.00484 307.03177 1360.0
-135.94093 308.38632 1366.0
-128.24619 308.38632 1366.0
-120.55144 308.38632 1366.0
-112.85663 308.38632 1366.0
-105.16188 308.38632 1366.0
-97.46708 308.38632 1366.0
-90.10092 309.5151 1371.0
-82.077576 308.38632 1366.0
-74.65504 309.5151 1371.0
-66.93213 309.5151 1371.0
-59.20916 309.5151 1371.0
-51.486244 309.5151 1371.0
-43.763325 309.5151 1371.0
-36.1718 310.64392 1376.0
-28.420717 310.64392 1376.0
-20.669584 310.64392 1376.0
-12.918503 310.64392 1376.0
-5.167421 310.64392 1376.0
2.5742726 309.5151 1371.0
10.334842 310.64392 1376.0
18.085924 310.64392 1376.0
25.949667 311.99847 1382.0
33.734547 311.99847 1382.0
41.33917 310.64392 1376.0
49.09035 310.64392 1376.0
56.841434 310.64392 1376.0
64.592514 310.64392 1376.0
72.65905 311.99847 1382.0
80.443924 311.99847 1382.0
88.22891 311.99847 1382.0
96.01379 311.99847 1382.0
104.24931 313.35303 1388.0
112.06799 313.35303 1388.0
120.318535 314.4818 1393.0
128.16548 314.4818 1393.0
136.01233 314.4818 1393.0
143.85918 314.4818 1393.0
151.70601 314.4818 1393.0
159.55286 314.4818 1393.0
167.3998 314.4818 1393.0
176.00146 315.83636 1399.0
183.88213 315.83636 1399.0
191.76277 315.83636 1399.0
199.6434 315.83636 1399.0
208.26584 316.96515 1404.0
216.17464 316.96515 1404.0
224.08345 316.96515 1404.0
231.99226 316.96515 1404.0
239.90106 316.96515 1404.0
248.86899 318.3197 1410.0
255.71878 316.96515 1404.0
263.6276 316.96515 1404.0
272.6968 318.3197 1410.0
280.6394 318.3197 1410.0
287.35413 316.96515 1404.0
296.52472 318.3197 1410.0
304.46732 318.3197 1410.0
313.73935 319.67426 1416.0
320.35254 318.3197 1410.0
329.69226 319.67426 1416.0
339.09943 321.0288 1422.0
347.10965 321.0288 1422.0
355.11987 321.0288 1422.0
361.59787 319.67426 1416.0
369.57437 319.67426 1416.0
379.15054 321.0288 1422.0
387.16077 321.0288 1422.0
395.171 321.0288 1422.0
403.18115 321.0288 1422.0
412.92648 322.38336 1428.0
422.73923 323.7379 1434.0
430.81705 323.7379 1434.0
438.89487 323.7379 1434.0
446.97266 323.7379 1434.0
455.05054 323.7379 1434.0
465.06613 325.09247 1440.0
473.17773 325.09247 1440.0
481.2893 325.09247 1440.0
489.4009 325.09247 1440.0
497.5126 325.09247 1440.0
505.62424 325.09247 1440.0
513.73584 325.09247 1440.0
521.8474 325.09247 1440.0
529.959 325.09247 1440.0
538.0707 325.09247 1440.0
543.90656 323.7379 1434.0
554.2939 325.09247 1440.0
562.40546 325.09247 1440.0
570.5171 325.09247 1440.0
581.03973 326.44702 1446.0
591.6299 327.80157 1452.0
599.8091 327.80157 1452.0
605.47595 326.44702 1446.0
616.1675 327.80157 1452.0
624.34674 327.80157 1452.0
632.526 327.80157 1452.0
640.70514 327.80157 1452.0
648.88434 327.80157 1452.0
657.0636 327.80157 1452.0
662.4939 326.44702 1446.0
670.6393 326.44702 1446.0
681.60126 327.80157 1452.0
689.7804 327.80157 1452.0
697.95966 327.80157 1452.0
709.0569 329.15613 1458.0
714.3181 327.80157 1452.0
722.4973 327.80157 1452.0
730.6765 327.80157 1452.0
741.9088 329.15613 1458.0
753.2088 330.51068 1464.0
761.4556 330.51068 1464.0
769.7024 330.51068 1464.0
777.9492 330.51068 1464.0
786.19604 330.51068 1464.0
794.4429 330.51068 1464.0
805.9794 331.86523 1470.0
810.93646 330.51068 1464.0
815.8259 329.15613 1458.0
824.03894 329.15613 1458.0
828.82715 327.80157 1452.0
843.92377 330.51068 1464.0
852.17053 330.51068 1464.0
863.94366 331.86523 1470.0
876.3777 333.44553 1477.0
884.69775 333.44553 1477.0
-767.3253 289.2307 1314.0
-759.9234 289.2307 1314.0
-752.52155 289.2307 1314.0
-745.11975 289.2307 1314.0
-740.52496 290.33127 1319.0
-733.09503 290.33127 1319.0
-725.665 290.33127 1319.0
-715.5123 289.2307 1314.0
-708.1105 289.2307 1314.0
-698.04224 288.13013 1309.0
-693.3068 289.2307 1314.0
-685.9049 289.2307 1314.0
-683.6667 291.43185 1324.0
-676.20856 291.43185 1324.0
-668.7503 291.43185 1324.0
-661.2922 291.43185 1324.0
-653.8339 291.43185 1324.0
-648.8168 292.53244 1329.0
-641.33044 292.53244 1329.0
-633.84406 292.53244 1329.0
-626.3578 292.53244 1329.0
-618.8714 292.53244 1329.0
-613.68524 293.633 1334.0
-608.44275 294.73358 1339.0
-600.9 294.73358 1339.0
-591.14166 293.633 1334.0
-581.43964 292.53244 1329.0
-576.1127 293.633 1334.0
-568.59814 293.633 1334.0
-563.18665 294.73358 1339.0
-555.644 294.73358 1339.0
-548.10126 294.73358 1339.0
-538.5401 293.633 1334.0
-529.0352 292.53244 1329.0
-525.47327 294.73358 1339.0
-519.8646 295.83414 1344.0
-512.2937 295.83414 1344.0
-504.7229 295.83414 1344.0
-497.15207 295.83414 1344.0
-485.93848 293.633 1334.0
-480.2172 294.73358 1339.0
-472.67447 294.73358 1339.0
-465.1318 294.73358 1339.0
-457.58914 294.73358 1339.0
-451.727 295.83414 1344.0
-444.15616 295.83414 1344.0
-436.5853 295.83414 1344.0
-429.01447 295.83414 1344.0
-421.44363 295.83414 1344.0
-413.87277 295.83414 1344.0
-406.30194 295.83414 1344.0
-398.73108 295.83414 1344.0
-392.9065 297.15485 1350.0
-385.30188 297.15485 1350.0
-377.6972 297.15485 1350.0
-370.09256 297.15485 1350.0
-363.83044 298.2554 1355.0
-354.8833 297.15485 1350.0
-348.5649 298.2554 1355.0
-340.93207 298.2554 1355.0
-332.06937 297.15485 1350.0
-325.6664 298.2554 1355.0
-318.03363 298.2554 1355.0
-310.40088 298.2554 1355.0
-303.88522 299.356 1360.0
-296.2243 299.356 1360.0
-288.5633 299.356 1360.0
-280.90234 299.356 1360.0
-192.27351 210.64977 957.0
-187.27322 211.09 959.0
-181.49182 210.64977 957.0
-176.10097 210.64977 957.0
-168.74794 208.2285 946.0
-203.54153 298.2554 1355.0
-196.63165 299.356 1360.0
-188.97064 299.356 1360.0
-181.30971 299.356 1360.0
-173.6487 299.356 1360.0
-165.98773 299.356 1360.0
-158.32678 299.356 1360.0
-150.66579 299.356 1360.0
-143.00484 299.356 1360.0
-135.94093 300.67667 1366.0
-128.24619 300.67667 1366.0
-120.99269 301.77722 1371.0
-113.26972 301.77722 1371.0
-105.16188 300.67667 1366.0
-97.46708 300.67667 1366.0
-90.10092 301.77722 1371.0
-82.378006 301.77722 1371.0
-74.65504 301.77722 1371.0
-66.68803 300.67667 1366.0
-59.42509 302.8778 1376.0
-51.67401 302.8778 1376.0
-43.763325 301.77722 1371.0
-36.1718 302.8778 1376.0
-28.420717 302.8778 1376.0
-20.669584 302.8778 1376.0
-12.918503 302.8778 1376.0
-5.167421 302.8778 1376.0
2.5742726 301.77722 1371.0
10.297288 301.77722 1371.0
18.085924 302.8778 1376.0
25.837006 302.8778 1376.0
33.58809 302.8778 1376.0
41.33917 302.8778 1376.0
49.09035 302.8778 1376.0
56.841434 302.8778 1376.0
64.592514 302.8778 1376.0
72.65905 304.19852 1382.0
80.443924 304.19852 1382.0
88.22891 304.19852 1382.0
96.43063 305.5192 1388.0
104.24931 305.5192 1388.0
112.06799 305.5192 1388.0
120.318535 306.61978 1393.0
128.16548 306.61978 1393.0
136.01233 306.61978 1393.0
143.85918 306.61978 1393.0
151.70601 306.61978 1393.0
159.55286 306.61978 1393.0
167.3998 306.61978 1393.0
175.24664 306.61978 1393.0
183.88213 307.94046 1399.0
191.76277 307.94046 1399.0
199.6434 307.94046 1399.0
207.52415 307.94046 1399.0
215.40479 307.94046 1399.0
223.28543 307.94046 1399.0
231.99226 309.04105 1404.0
240.92628 310.36172 1410.0
249.92801 311.6824 1416.0
255.71878 309.04105 1404.0
262.68875 307.94046 1399.0
270.5694 307.94046 1399.0
279.4452 309.04105 1404.0
287.35413 309.04105 1404.0
295.2629 309.04105 1404.0
304.46732 310.36172 1410.0
313.73935 311.6824 1416.0
321.71573 311.6824 1416.0
329.69226 311.6824 1416.0
337.66864 311.6824 1416.0
345.64505 311.6824 1416.0
353.62146 311.6824 1416.0
361.59787 311.6824 1416.0
369.57437 311.6824 1416.0
379.15054 313.0031 1422.0
387.16077 313.0031 1422.0
395.171 313.0031 1422.0
403.18115 313.0031 1422.0
412.92648 314.3238 1428.0
420.97046 314.3238 1428.0
429.01447 314.3238 1428.0
438.89487 315.64447 1434.0
446.97266 315.64447 1434.0
455.05054 315.64447 1434.0
463.12833 315.64447 1434.0
473.17773 316.96515 1440.0
481.2893 316.96515 1440.0
489.4009 316.96515 1440.0
497.5126 316.96515 1440.0
505.62424 316.96515 1440.0
513.73584 316.96515 1440.0
519.67303 315.64447 1434.0
527.75085 315.64447 1434.0
538.0707 316.96515 1440.0
543.90656 315.64447 1434.0
554.2939 316.96515 1440.0
562.40546 316.96515 1440.0
570.5171 316.96515 1440.0
581.03973 318.28583 1446.0
589.1851 318.28583 1446.0
597.33057 318.28583 1446.0
605.47595 318.28583 1446.0
616.1675 319.60654 1452.0
624.34674 319.60654 1452.0
632.526 319.60654 1452.0
638.0576 318.28583 1446.0
648.88434 319.60654 1452.0
657.0636 319.60654 1452.0
662.4939 318.28583 1446.0
670.6393 318.28583 1446.0
681.60126 319.60654 1452.0
689.7804 319.60654 1452.0
697.95966 319.60654 1452.0
706.1389 319.60654 1452.0
714.3181 319.60654 1452.0
722.4973 319.60654 1452.0
730.6765 319.60654 1452.0
741.9088 320.92722 1458.0
753.2088 322.24792 1464.0
761.4556 322.24792 1464.0
769.7024 322.24792 1464.0
774.76086 320.92722 1458.0
786.19604 322.24792 1464.0
794.4429 322.24792 1464.0
805.9794 323.5686 1470.0
810.93646 322.24792 1464.0
815.8259 320.92722 1458.0
824.03894 320.92722 1458.0
828.82715 319.60654 1452.0
843.92377 322.24792 1464.0
852.17053 322.24792 1464.0
863.94366 323.5686 1470.0
876.3777 325.1094 1477.0
880.50494 323.5686 1470.0
-767.3253 281.81454 1314.0
-759.9234 281.81454 1314.0
-752.52155 281.81454 1314.0
-745.11975 281.81454 1314.0
-740.52496 282.8869 1319.0
-730.31604 281.81454 1314.0
-722.9141 281.81454 1314.0
-712.7897 280.7422 1309.0
-705.416 280.7422 1309.0
-698.04224 280.7422 1309.0
-693.3068 281.81454 1314.0
-685.9049 281.81454 1314.0
-681.0849 282.8869 1319.0
-676.20856 283.95926 1324.0
-671.27576 285.03162 1329.0
-663.78955 285.03162 1329.0
-653.8339 283.95926 1324.0
-648.8168 285.03162 1329.0
-641.33044 285.03162 1329.0
-633.84406 285.03162 1329.0
-626.3578 285.03162 1329.0
-616.543 283.95926 1324.0
-611.3851 285.03162 1329.0
-606.1707 286.10394 1334.0
-598.6562 286.10394 1334.0
-591.14166 286.10394 1334.0
-583.62714 286.10394 1334.0
-576.1127 286.10394 1334.0
-570.7293 287.1763 1339.0
-563.18665 287.1763 1339.0
-553.5691 286.10394 1334.0
-546.05457 286.10394 1334.0
-538.5401 286.10394 1334.0
-531.0256 286.10394 1334.0
-525.47327 287.1763 1339.0
-517.9306 287.1763 1339.0
-512.2937 288.24866 1344.0
-504.7229 288.24866 1344.0
-497.15207 288.24866 1344.0
-487.75986 287.1763 1339.0
-478.42398 286.10394 1334.0
-470.90945 286.10394 1334.0
-465.1318 287.1763 1339.0
-457.58914 287.1763 1339.0
-450.04645 287.1763 1339.0
-444.15616 288.24866 1344.0
-436.5853 288.24866 1344.0
-429.01447 288.24866 1344.0
-421.44363 288.24866 1344.0
-413.87277 288.24866 1344.0
-406.30194 288.24866 1344.0
-398.73108 288.24866 1344.0
-392.9065 289.5355 1350.0
-385.30188 289.5355 1350.0
-376.01855 288.24866 1344.0
-368.44772 288.24866 1344.0
-360.87686 288.24866 1344.0
-354.8833 289.5355 1350.0
-348.5649 290.60785 1355.0
-339.674 289.5355 1350.0
-332.06937 289.5355 1350.0
-324.4647 289.5355 1350.0
-316.86008 289.5355 1350.0
-310.40088 290.60785 1355.0
-303.88522 291.6802 1360.0
-296.2243 291.6802 1360.0
-288.5633 291.6802 1360.0
-280.90234 291.6802 1360.0
-191.67079 204.60509 954.0
-186.88266 205.24849 957.0
-181.87112 205.67743 959.0
-211.95355 291.6802 1360.0
-204.2926 291.6802 1360.0
-196.63165 291.6802 1360.0
-188.97064 291.6802 1360.0
-181.30971 291.6802 1360.0
-173.6487 291.6802 1360.0
-165.98773 291.6802 1360.0
-158.32678 291.6802 1360.0
-150.66579 291.6802 1360.0
-143.00484 291.6802 1360.0
-135.34383 291.6802 1360.0
-128.24619 292.967 1366.0
-120.55144 292.967 1366.0
-113.26972 294.03937 1371.0
-105.16188 292.967 1366.0
-97.46708 292.967 1366.0
-89.77233 292.967 1366.0
-82.077576 292.967 1366.0
-74.65504 294.03937 1371.0
-66.93213 294.03937 1371.0
-59.20916 294.03937 1371.0
-51.486244 294.03937 1371.0
-43.763325 294.03937 1371.0
-36.1718 295.11172 1376.0
-28.420717 295.11172 1376.0
-20.669584 295.11172 1376.0
-12.918503 295.11172 1376.0
-5.167421 295.11172 1376.0
2.5742726 294.03937 1371.0
10.297288 294.03937 1371.0
18.020205 294.03937 1371.0
25.837006 295.11172 1376.0
33.58809 295.11172 1376.0
41.33917 295.11172 1376.0
49.09035 295.11172 1376.0
56.841434 295.11172 1376.0
64.592514 295.11172 1376.0
72.65905 296.39856 1382.0
80.443924 296.39856 1382.0
88.22891 296.39856 1382.0
96.01379 296.39856 1382.0
104.24931 297.6854 1388.0
112.06799 297.6854 1388.0
120.318535 298.75775 1393.0
128.16548 298.75775 1393.0
136.01233 298.75775 1393.0
143.3428 297.6854 1388.0
151.70601 298.75775 1393.0
159.55286 298.75775 1393.0
167.3998 298.75775 1393.0
176.00146 300.04456 1399.0
183.88213 300.04456 1399.0
191.76277 300.04456 1399.0
200.35692 301.1169 1404.0
209.15585 302.40375 1410.0
216.17464 301.1169 1404.0
223.28543 300.04456 1399.0
231.16608 300.04456 1399.0
239.90106 301.1169 1404.0
248.86899 302.40375 1410.0
255.71878 301.1169 1404.0
262.68875 300.04456 1399.0
270.5694 300.04456 1399.0
279.4452 301.1169 1404.0
287.35413 301.1169 1404.0
296.52472 302.40375 1410.0
304.46732 302.40375 1410.0
312.4099 302.40375 1410.0
320.35254 302.40375 1410.0
328.29526 302.40375 1410.0
337.66864 303.69055 1416.0
345.64505 303.69055 1416.0
353.62146 303.69055 1416.0
361.59787 303.69055 1416.0
369.57437 303.69055 1416.0
379.15054 304.9774 1422.0
387.16077 304.9774 1422.0
395.171 304.9774 1422.0
403.18115 304.9774 1422.0
414.66144 307.55103 1434.0
420.97046 306.26422 1428.0
430.81705 307.55103 1434.0
438.89487 307.55103 1434.0
446.97266 307.55103 1434.0
455.05054 307.55103 1434.0
463.12833 307.55103 1434.0
471.20615 307.55103 1434.0
479.28394 307.55103 1434.0
489.4009 308.83786 1440.0
497.5126 308.83786 1440.0
505.62424 308.83786 1440.0
513.73584 308.83786 1440.0
519.67303 307.55103 1434.0
527.75085 307.55103 1434.0
535.82874 307.55103 1434.0
543.90656 307.55103 1434.0
554.2939 308.83786 1440.0
562.40546 308.83786 1440.0
568.13995 307.55103 1434.0
581.03973 310.1247 1446.0
589.1851 310.1247 1446.0
599.8091 311.4115 1452.0
607.9883 311.4115 1452.0
616.1675 311.4115 1452.0
624.34674 311.4115 1452.0
629.9122 310.1247 1446.0
638.0576 310.1247 1446.0
648.88434 311.4115 1452.0
657.0636 311.4115 1452.0
665.2428 311.4115 1452.0
673.42206 311.4115 1452.0
681.60126 311.4115 1452.0
689.7804 311.4115 1452.0
697.95966 311.4115 1452.0
706.1389 311.4115 1452.0
714.3181 311.4115 1452.0
725.48285 312.69833 1458.0
730.6765 311.4115 1452.0
741.9088 312.69833 1458.0
750.12195 312.69833 1458.0
761.4556 313.98514 1464.0
769.7024 313.98514 1464.0
774.76086 312.69833 1458.0
786.19604 313.98514 1464.0
794.4429 313.98514 1464.0
805.9794 315.272 1470.0
810.93646 313.98514 1464.0
815.8259 312.69833 1458.0
827.43005 313.98514 1464.0
835.67694 313.98514 1464.0
843.92377 313.98514 1464.0
855.663 315.272 1470.0
863.94366 315.272 1470.0
872.2242 315.272 1470.0
880.50494 315.272 1470.0
-767.3253 274.39835 1314.0
-759.9234 274.39835 1314.0
-749.6581 273.35422 1309.0
-742.2844 273.35422 1309.0
-737.71783 274.39835 1314.0
-730.31604 274.39835 1314.0
-722.9141 274.39835 1314.0
-712.7897 273.35422 1309.0
-705.416 273.35422 1309.0
-698.04224 273.35422 1309.0
-693.3068 274.39835 1314.0
-688.5149 275.44247 1319.0
-678.50305 274.39835 1314.0
-676.20856 276.4866 1324.0
-668.7503 276.4866 1324.0
-661.2922 276.4866 1324.0
-653.8339 276.4866 1324.0
-646.3758 276.4866 1324.0
-638.9176 276.4866 1324.0
-633.84406 277.53076 1329.0
-624.0013 276.4866 1324.0
-616.543 276.4866 1324.0
-611.3851 277.53076 1329.0
-606.1707 278.5749 1334.0
-598.6562 278.5749 1334.0
-591.14166 278.5749 1334.0
-581.43964 277.53076 1329.0
-576.1127 278.5749 1334.0
-570.7293 279.61902 1339.0
-563.18665 279.61902 1339.0
-555.644 279.61902 1339.0
-546.05457 278.5749 1334.0
-538.5401 278.5749 1334.0
-533.0159 279.61902 1339.0
-527.4354 280.66315 1344.0
-519.8646 280.66315 1344.0
-512.2937 280.66315 1344.0
-504.7229 280.66315 1344.0
-497.15207 280.66315 1344.0
-485.93848 278.5749 1334.0
-480.2172 279.61902 1339.0
-472.67447 279.61902 1339.0
-465.1318 279.61902 1339.0
-457.58914 279.61902 1339.0
-450.04645 279.61902 1339.0
-442.50378 279.61902 1339.0
-436.5853 280.66315 1344.0
-429.01447 280.66315 1344.0
-421.44363 280.66315 1344.0
-413.87277 280.66315 1344.0
-404.7904 279.61902 1339.0
-398.73108 280.66315 1344.0
-392.9065 281.9161 1350.0
-385.30188 281.9161 1350.0
-377.6972 281.9161 1350.0
-368.44772 280.66315 1344.0
-360.87686 280.66315 1344.0
-354.8833 281.9161 1350.0
-347.2787 281.9161 1350.0
-339.674 281.9161 1350.0
-332.06937 281.9161 1350.0
-324.4647 281.9161 1350.0
-318.03363 282.96024 1355.0
-310.40088 282.96024 1355.0
-303.88522 284.00436 1360.0
-296.2243 284.00436 1360.0
-288.5633 284.00436 1360.0
-196.012 198.17657 949.0
-191.67079 199.22072 954.0
-186.29681 199.22072 954.0
-181.87112 200.26485 959.0
-211.95355 284.00436 1360.0
-204.2926 284.00436 1360.0
-196.63165 284.00436 1360.0
-188.97064 284.00436 1360.0
-181.30971 284.00436 1360.0
-173.01028 282.96024 1355.0
-165.98773 284.00436 1360.0
-158.32678 284.00436 1360.0
-150.66579 284.00436 1360.0
-143.00484 284.00436 1360.0
-135.34383 284.00436 1360.0
-127.68288 284.00436 1360.0
-120.55144 285.25732 1366.0
-113.26972 286.30148 1371.0
-105.54681 286.30148 1371.0
-97.46708 285.25732 1366.0
-89.77233 285.25732 1366.0
-82.077576 285.25732 1366.0
-74.382774 285.25732 1366.0
-66.93213 286.30148 1371.0
-59.42509 287.3456 1376.0
-51.486244 286.30148 1371.0
-43.763325 286.30148 1371.0
-36.04036 286.30148 1371.0
-28.317442 286.30148 1371.0
-20.669584 287.3456 1376.0
-12.918503 287.3456 1376.0
-5.167421 287.3456 1376.0
2.5742726 286.30148 1371.0
10.297288 286.30148 1371.0
18.020205 286.30148 1371.0
25.837006 287.3456 1376.0
33.58809 287.3456 1376.0
41.188953 286.30148 1371.0
49.09035 287.3456 1376.0
56.841434 287.3456 1376.0
64.592514 287.3456 1376.0
72.65905 288.59857 1382.0
80.443924 288.59857 1382.0
88.22891 288.59857 1382.0
96.01379 288.59857 1382.0
104.24931 289.85153 1388.0
112.06799 289.85153 1388.0
119.88667 289.85153 1388.0
127.70545 289.85153 1388.0
136.01233 290.89566 1393.0
143.3428 289.85153 1388.0
151.70601 290.89566 1393.0
159.55286 290.89566 1393.0
167.3998 290.89566 1393.0
176.00146 292.14862 1399.0
183.88213 292.14862 1399.0
191.76277 292.14862 1399.0
200.35692 293.19275 1404.0
208.26584 293.19275 1404.0
216.17464 293.19275 1404.0
223.28543 292.14862 1399.0
231.16608 292.14862 1399.0
239.0467 292.14862 1399.0
248.86899 294.4457 1410.0
255.71878 293.19275 1404.0
263.6276 293.19275 1404.0
270.5694 292.14862 1399.0
279.4452 293.19275 1404.0
288.58212 294.4457 1410.0
296.52472 294.4457 1410.0
304.46732 294.4457 1410.0
312.4099 294.4457 1410.0
320.35254 294.4457 1410.0
328.29526 294.4457 1410.0
337.66864 295.69867 1416.0
345.64505 295.69867 1416.0
353.62146 295.69867 1416.0
361.59787 295.69867 1416.0
369.57437 295.69867 1416.0
377.55078 295.69867 1416.0
387.16077 296.95163 1422.0
395.171 296.95163 1422.0
404.88235 298.2046 1428.0
412.92648 298.2046 1428.0
420.97046 298.2046 1428.0
429.01447 298.2046 1428.0
438.89487 299.45755 1434.0
446.97266 299.45755 1434.0
455.05054 299.45755 1434.0
463.12833 299.45755 1434.0
471.20615 299.45755 1434.0
479.28394 299.45755 1434.0
489.4009 300.7105 1440.0
497.5126 300.7105 1440.0
505.62424 300.7105 1440.0
513.73584 300.7105 1440.0
519.67303 299.45755 1434.0
527.75085 299.45755 1434.0
535.82874 299.45755 1434.0
543.90656 299.45755 1434.0
554.2939 300.7105 1440.0
562.40546 300.7105 1440.0
570.5171 300.7105 1440.0
581.03973 301.96347 1446.0
589.1851 301.96347 1446.0
597.33057 301.96347 1446.0
602.96356 300.7105 1440.0
613.62134 301.96347 1446.0
624.34674 303.21646 1452.0
632.526 303.21646 1452.0
640.70514 303.21646 1452.0
648.88434 303.21646 1452.0
657.0636 303.21646 1452.0
665.2428 303.21646 1452.0
673.42206 303.21646 1452.0
681.60126 303.21646 1452.0
689.7804 303.21646 1452.0
697.95966 303.21646 1452.0
706.1389 303.21646 1452.0
717.26984 304.4694 1458.0
725.48285 304.4694 1458.0
730.6765 303.21646 1452.0
741.9088 304.4694 1458.0
750.12195 304.4694 1458.0
764.57635 306.9753 1470.0
769.7024 305.72235 1464.0
774.76086 304.4694 1458.0
782.9739 304.4694 1458.0
791.187 304.4694 1458.0
799.39996 304.4694 1458.0
807.613 304.4694 1458.0
815.8259 304.4694 1458.0
824.03894 304.4694 1458.0
835.67694 305.72235 1464.0
843.92377 305.72235 1464.0
852.17053 305.72235 1464.0
863.94366 306.9753 1470.0
872.2242 306.9753 1470.0
884.69775 308.4371 1477.0
-767.3253 266.98218 1314.0
-759.9234 266.98218 1314.0
-749.6581 265.96628 1309.0
-742.2844 265.96628 1309.0
-737.71783 266.98218 1314.0
-730.31604 266.98218 1314.0
-722.9141 266.98218 1314.0
-712.7897 265.96628 1309.0
-705.416 265.96628 1309.0
-698.04224 265.96628 1309.0
-693.3068 266.98218 1314.0
-688.5149 267.9981 1319.0
-681.0849 267.9981 1319.0
-676.20856 269.014 1324.0
-668.7503 269.014 1324.0
-661.2922 269.014 1324.0
-653.8339 269.014 1324.0
-646.3758 269.014 1324.0
-638.9176 269.014 1324.0
-633.84406 270.02994 1329.0
-626.3578 270.02994 1329.0
-616.543 269.014 1324.0
-611.3851 270.02994 1329.0
-606.1707 271.04584 1334.0
-598.6562 271.04584 1334.0
-591.14166 271.04584 1334.0
-583.62714 271.04584 1334.0
-576.1127 271.04584 1334.0
-570.7293 272.06174 1339.0
-565.2896 273.07767 1344.0
-555.644 272.06174 1339.0
-546.05457 271.04584 1334.0
-536.52155 270.02994 1329.0
-533.0159 272.06174 1339.0
-525.47327 272.06174 1339.0
-519.8646 273.07767 1344.0
-512.2937 273.07767 1344.0
-504.7229 273.07767 1344.0
-497.15207 273.07767 1344.0
-485.93848 271.04584 1334.0
-478.42398 271.04584 1334.0
-472.67447 272.06174 1339.0
-465.1318 272.06174 1339.0
-459.29785 273.07767 1344.0
-450.04645 272.06174 1339.0
-442.50378 272.06174 1339.0
-436.5853 273.07767 1344.0
-429.01447 273.07767 1344.0
-421.44363 273.07767 1344.0
-413.87277 273.07767 1344.0
-404.7904 272.06174 1339.0
-398.73108 273.07767 1344.0
-391.16025 273.07767 1344.0
-385.30188 274.29675 1350.0
-376.01855 273.07767 1344.0
-368.44772 273.07767 1344.0
-360.87686 273.07767 1344.0
-354.8833 274.29675 1350.0
-347.2787 274.29675 1350.0
-340.93207 275.31268 1355.0
-332.06937 274.29675 1350.0
-325.6664 275.31268 1355.0
-318.03363 275.31268 1355.0
-311.54626 276.32858 1360.0
-303.88522 276.32858 1360.0
-296.2243 276.32858 1360.0
-288.5633 276.32858 1360.0
-196.63162 193.43001 952.0
-191.67079 193.83638 954.0
-186.88266 194.44592 957.0
-181.87112 194.8523 959.0
-211.95355 276.32858 1360.0
-204.2926 276.32858 1360.0
-196.63165 276.32858 1360.0
-188.97064 276.32858 1360.0
-181.30971 276.32858 1360.0
-173.01028 275.31268 1355.0
-165.98773 276.32858 1360.0
-158.32678 276.32858 1360.0
-150.66579 276.32858 1360.0
-143.00484 276.32858 1360.0
-135.34383 276.32858 1360.0
-127.68288 276.32858 1360.0
-120.02192 276.32858 1360.0
-112.85663 277.5477 1366.0
-105.54681 278.5636 1371.0
-97.46708 277.5477 1366.0
-89.77233 277.5477 1366.0
-82.077576 277.5477 1366.0
-74.65504 278.5636 1371.0
-67.17622 279.57953 1376.0
-59.42509 279.57953 1376.0
-51.67401 279.57953 1376.0
-43.763325 278.5636 1371.0
-36.1718 279.57953 1376.0
-28.420717 279.57953 1376.0
-20.669584 279.57953 1376.0
-12.918503 279.57953 1376.0
-5.167421 279.57953 1376.0
2.5742726 278.5636 1371.0
10.297288 278.5636 1371.0
18.020205 278.5636 1371.0
25.743122 278.5636 1371.0
33.466038 278.5636 1371.0
41.188953 278.5636 1371.0
49.09035 279.57953 1376.0
56.841434 279.57953 1376.0
64.592514 279.57953 1376.0
72.65905 280.7986 1382.0
80.09467 279.57953 1376.0
87.84586 279.57953 1376.0
95.59694 279.57953 1376.0
103.79867 280.7986 1382.0
112.06799 282.0177 1388.0
119.88667 282.0177 1388.0
127.70545 282.0177 1388.0
135.52412 282.0177 1388.0
143.85918 283.03363 1393.0
151.70601 283.03363 1393.0
159.55286 283.03363 1393.0
167.3998 283.03363 1393.0
175.24664 283.03363 1393.0
183.88213 284.25272 1399.0
191.76277 284.25272 1399.0
199.6434 284.25272 1399.0
207.52415 284.25272 1399.0
215.40479 284.25272 1399.0
223.28543 284.25272 1399.0
231.16608 284.25272 1399.0
239.0467 284.25272 1399.0
248.86899 286.48773 1410.0
256.81158 286.48773 1410.0
263.6276 285.26865 1404.0
271.5364 285.26865 1404.0
279.4452 285.26865 1404.0
288.58212 286.48773 1410.0
296.52472 286.48773 1410.0
304.46732 286.48773 1410.0
312.4099 286.48773 1410.0
321.71573 287.70685 1416.0
329.69226 287.70685 1416.0
337.66864 287.70685 1416.0
345.64505 287.70685 1416.0
353.62146 287.70685 1416.0
361.59787 287.70685 1416.0
369.57437 287.70685 1416.0
377.55078 287.70685 1416.0
387.16077 288.9259 1422.0
393.50357 287.70685 1416.0
404.88235 290.14502 1428.0
411.1915 288.9259 1422.0
420.97046 290.14502 1428.0
429.01447 290.14502 1428.0
438.89487 291.3641 1434.0
446.97266 291.3641 1434.0
455.05054 291.3641 1434.0
463.12833 291.3641 1434.0
471.20615 291.3641 1434.0
479.28394 291.3641 1434.0
489.4009 292.58322 1440.0
497.5126 292.58322 1440.0
505.62424 292.58322 1440.0
513.73584 292.58322 1440.0
519.67303 291.3641 1434.0
527.75085 291.3641 1434.0
535.82874 291.3641 1434.0
541.6308 290.14502 1428.0
551.9843 291.3641 1434.0
562.40546 292.58322 1440.0
572.8942 293.8023 1446.0
581.03973 293.8023 1446.0
589.1851 293.8023 1446.0
597.33057 293.8023 1446.0
602.96356 292.58322 1440.0
611.0752 292.58322 1440.0
621.76685 293.8023 1446.0
632.526 295.0214 1452.0
640.70514 295.0214 1452.0
648.88434 295.0214 1452.0
657.0636 295.0214 1452.0
665.2428 295.0214 1452.0
673.42206 295.0214 1452.0
681.60126 295.0214 1452.0
689.7804 295.0214 1452.0
697.95966 295.0214 1452.0
706.1389 295.0214 1452.0
714.3181 295.0214 1452.0
725.48285 296.2405 1458.0
733.6958 296.2405 1458.0
741.9088 296.2405 1458.0
750.12195 296.2405 1458.0
758.3349 296.2405 1458.0
766.5479 296.2405 1458.0
774.76086 296.2405 1458.0
782.9739 296.2405 1458.0
791.187 296.2405 1458.0
799.39996 296.2405 1458.0
807.613 296.2405 1458.0
815.8259 296.2405 1458.0
824.03894 296.2405 1458.0
835.67694 297.4596 1464.0
843.92377 297.4596 1464.0
855.663 298.6787 1470.0
863.94366 298.6787 1470.0
872.2242 298.6787 1470.0
884.69775 300.10095 1477.0
-767.3253 259.566 1314.0
-759.9234 259.566 1314.0
-752.52155 259.566 1314.0
-745.11975 259.566 1314.0
-737.71783 259.566 1314.0
-730.31604 259.566 1314.0
-722.9141 259.566 1314.0
-712.7897 258.5783 1309.0
-705.416 258.5783 1309.0
-698.04224 258.5783 1309.0
-693.3068 259.566 1314.0
-688.5149 260.5537 1319.0
-683.6667 261.5414 1324.0
-676.20856 261.5414 1324.0
-668.7503 261.5414 1324.0
-658.79486 260.5537 1319.0
-651.3648 260.5537 1319.0
-646.3758 261.5414 1324.0
-641.33044 262.52908 1329.0
-631.45935 261.5414 1324.0
-626.3578 262.52908 1329.0
-618.8714 262.52908 1329.0
-611.3851 262.52908 1329.0
-606.1707 263.51678 1334.0
-598.6562 263.51678 1334.0
-591.14166 263.51678 1334.0
-583.62714 263.51678 1334.0
-576.1127 263.51678 1334.0
-570.7293 264.5045 1339.0
-565.2896 265.4922 1344.0
-557.7188 265.4922 1344.0
-548.10126 264.5045 1339.0
-538.5401 263.51678 1334.0
-533.0159 264.5045 1339.0
-525.47327 264.5045 1339.0
-519.8646 265.4922 1344.0
-512.2937 265.4922 1344.0
-504.7229 265.4922 1344.0
-497.15207 265.4922 1344.0
-487.75986 264.5045 1339.0
-480.2172 264.5045 1339.0
-474.4395 265.4922 1344.0
-465.1318 264.5045 1339.0
-459.29785 265.4922 1344.0
-451.727 265.4922 1344.0
-444.15616 265.4922 1344.0
-436.5853 265.4922 1344.0
-429.01447 265.4922 1344.0
-421.44363 265.4922 1344.0
-413.87277 265.4922 1344.0
-404.7904 264.5045 1339.0
-398.73108 265.4922 1344.0
-391.16025 265.4922 1344.0
-383.58942 265.4922 1344.0
-376.01855 265.4922 1344.0
-368.44772 265.4922 1344.0
-360.87686 265.4922 1344.0
-354.8833 266.6774 1350.0
-347.2787 266.6774 1350.0
-342.19012 268.6528 1360.0
-333.29926 267.6651 1355.0
-325.6664 267.6651 1355.0
-318.03363 267.6651 1355.0
-311.54626 268.6528 1360.0
-303.88522 268.6528 1360.0
-296.2243 268.6528 1360.0
-288.5633 268.6528 1360.0
-196.012 187.46434 949.0
-191.26895 188.05696 952.0
-185.90627 188.05696 952.0
-218.80716 267.6651 1355.0
-211.17432 267.6651 1355.0
-204.2926 268.6528 1360.0
-196.63165 268.6528 1360.0
-188.97064 268.6528 1360.0
-181.30971 268.6528 1360.0
-173.6487 268.6528 1360.0
-165.98773 268.6528 1360.0
-158.32678 268.6528 1360.0
-150.66579 268.6528 1360.0
-143.00484 268.6528 1360.0
-135.34383 268.6528 1360.0
-127.68288 268.6528 1360.0
-120.02192 268.6528 1360.0
-112.36092 268.6528 1360.0
-105.16188 269.83804 1366.0
-97.46708 269.83804 1366.0
-89.77233 269.83804 1366.0
-82.077576 269.83804 1366.0
-74.65504 270.8257 1371.0
-66.93213 270.8257 1371.0
-59.20916 270.8257 1371.0
-51.67401 271.81342 1376.0
-43.92293 271.81342 1376.0
-36.1718 271.81342 1376.0
-28.420717 271.81342 1376.0
-20.669584 271.81342 1376.0
-12.918503 271.81342 1376.0
-5.167421 271.81342 1376.0
2.5742726 270.8257 1371.0
10.297288 270.8257 1371.0
18.020205 270.8257 1371.0
25.743122 270.8257 1371.0
33.466038 270.8257 1371.0
41.188953 270.8257 1371.0
49.09035 271.81342 1376.0
56.841434 271.81342 1376.0
64.592514 271.81342 1376.0
72.3436 271.81342 1376.0
80.09467 271.81342 1376.0
87.84586 271.81342 1376.0
95.59694 271.81342 1376.0
103.79867 272.99866 1382.0
112.06799 274.1839 1388.0
119.88667 274.1839 1388.0
127.70545 274.1839 1388.0
136.01233 275.17157 1393.0
143.3428 274.1839 1388.0
151.16148 274.1839 1388.0
159.55286 275.17157 1393.0
167.3998 275.17157 1393.0
175.24664 275.17157 1393.0
183.09349 275.17157 1393.0
191.76277 276.3568 1399.0
199.6434 276.3568 1399.0
206.63412 275.17157 1393.0
215.40479 276.3568 1399.0
223.28543 276.3568 1399.0
231.16608 276.3568 1399.0
239.0467 276.3568 1399.0
248.86899 278.52975 1410.0
256.81158 278.52975 1410.0
264.7542 278.52975 1410.0
271.5364 277.3445 1404.0
279.4452 277.3445 1404.0
288.58212 278.52975 1410.0
296.52472 278.52975 1410.0
304.46732 278.52975 1410.0
313.73935 279.71497 1416.0
320.35254 278.52975 1410.0
328.29526 278.52975 1410.0
336.23788 278.52975 1410.0
345.64505 279.71497 1416.0
353.62146 279.71497 1416.0
361.59787 279.71497 1416.0
369.57437 279.71497 1416.0
377.55078 279.71497 1416.0
387.16077 280.9002 1422.0
393.50357 279.71497 1416.0
403.18115 280.9002 1422.0
411.1915 280.9002 1422.0
420.97046 282.08545 1428.0
429.01447 282.08545 1428.0
437.05847 282.08545 1428.0
446.97266 283.27066 1434.0
455.05054 283.27066 1434.0
463.12833 283.27066 1434.0
471.20615 283.27066 1434.0
479.28394 283.27066 1434.0
487.36176 283.27066 1434.0
495.43964 283.27066 1434.0
505.62424 284.4559 1440.0
513.73584 284.4559 1440.0
519.67303 283.27066 1434.0
527.75085 283.27066 1434.0
535.82874 283.27066 1434.0
543.90656 283.27066 1434.0
554.2939 284.4559 1440.0
562.40546 284.4559 1440.0
572.8942 285.64114 1446.0
581.03973 285.64114 1446.0
591.6299 286.8264 1452.0
597.33057 285.64114 1446.0
602.96356 284.4559 1440.0
611.0752 284.4559 1440.0
621.76685 285.64114 1446.0
632.526 286.8264 1452.0
640.70514 286.8264 1452.0
648.88434 286.8264 1452.0
657.0636 286.8264 1452.0
665.2428 286.8264 1452.0
673.42206 286.8264 1452.0
681.60126 286.8264 1452.0
689.7804 286.8264 1452.0
697.95966 286.8264 1452.0
706.1389 286.8264 1452.0
714.3181 286.8264 1452.0
725.48285 288.0116 1458.0
733.6958 288.0116 1458.0
741.9088 288.0116 1458.0
750.12195 288.0116 1458.0
758.3349 288.0116 1458.0
766.5479 288.0116 1458.0
774.76086 288.0116 1458.0
782.9739 288.0116 1458.0
791.187 288.0116 1458.0
799.39996 288.0116 1458.0
807.613 288.0116 1458.0
815.8259 288.0116 1458.0
824.03894 288.0116 1458.0
835.67694 289.19684 1464.0
843.92377 289.19684 1464.0
852.17053 289.19684 1464.0
863.94366 290.38208 1470.0
872.2242 290.38208 1470.0
884.69775 291.76483 1477.0
-764.4055 251.19037 1309.0
-757.03174 251.19037 1309.0
-752.52155 252.14986 1314.0
-745.11975 252.14986 1314.0
-737.71783 252.14986 1314.0
-730.31604 252.14986 1314.0
-722.9141 252.14986 1314.0
-712.7897 251.19037 1309.0
-705.416 251.19037 1309.0
-698.04224 251.19037 1309.0
-693.3068 252.14986 1314.0
-688.5149 253.10933 1319.0
-683.6667 254.0688 1324.0
-676.20856 254.0688 1324.0
-668.7503 254.0688 1324.0
-656.29755 252.14986 1314.0
-651.3648 253.10933 1319.0
-643.9348 253.10933 1319.0
-641.33044 255.02827 1329.0
-633.84406 255.02827 1329.0
-624.0013 254.0688 1324.0
-618.8714 255.02827 1329.0
-611.3851 255.02827 1329.0
-606.1707 255.98775 1334.0
-598.6562 255.98775 1334.0
-591.14166 255.98775 1334.0
-583.62714 255.98775 1334.0
-576.1127 255.98775 1334.0
-570.7293 256.94724 1339.0
-563.18665 256.94724 1339.0
-555.644 256.94724 1339.0
-546.05457 255.98775 1334.0
-538.5401 255.98775 1334.0
-531.0256 255.98775 1334.0
-525.47327 256.94724 1339.0
-517.9306 256.94724 1339.0
-512.2937 257.9067 1344.0
-504.7229 257.9067 1344.0
-497.15207 257.9067 1344.0
-487.75986 256.94724 1339.0
-482.01038 257.9067 1344.0
-474.4395 257.9067 1344.0
-466.86868 257.9067 1344.0
-459.29785 257.9067 1344.0
-451.727 257.9067 1344.0
-444.15616 257.9067 1344.0
-436.5853 257.9067 1344.0
-429.01447 257.9067 1344.0
-421.44363 257.9067 1344.0
-412.33307 256.94724 1339.0
-408.11578 259.05804 1350.0
-400.5111 259.05804 1350.0
-392.9065 259.05804 1350.0
-385.30188 259.05804 1350.0
-377.6972 259.05804 1350.0
-370.09256 259.05804 1350.0
-362.48788 259.05804 1350.0
-356.19766 260.01755 1355.0
-348.5649 260.01755 1355.0
-340.93207 260.01755 1355.0
-333.29926 260.01755 1355.0
-325.6664 260.01755 1355.0
-318.03363 260.01755 1355.0
-311.54626 260.97702 1360.0
-303.88522 260.97702 1360.0
-296.2243 260.97702 1360.0
-288.5633 260.97702 1360.0
-196.63162 182.68391 952.0
-191.26895 182.68391 952.0
-186.29681 183.0677 954.0
-226.43993 260.01755 1355.0
-218.80716 260.01755 1355.0
-211.17432 260.01755 1355.0
-203.54153 260.01755 1355.0
-196.63165 260.97702 1360.0
-188.97064 260.97702 1360.0
-181.30971 260.97702 1360.0
-173.6487 260.97702 1360.0
-165.98773 260.97702 1360.0
-158.32678 260.97702 1360.0
-150.66579 260.97702 1360.0
-143.00484 260.97702 1360.0
-135.34383 260.97702 1360.0
-127.68288 260.97702 1360.0
-120.02192 260.97702 1360.0
-112.36092 260.97702 1360.0
-104.69997 260.97702 1360.0
-97.03897 260.97702 1360.0
-89.77233 262.12836 1366.0
-82.077576 262.12836 1366.0
-74.382774 262.12836 1366.0
-66.68803 262.12836 1366.0
-58.993225 262.12836 1366.0
-51.486244 263.08786 1371.0
-43.92293 264.04733 1376.0
-36.04036 263.08786 1371.0
-28.317442 263.08786 1371.0
-20.594477 263.08786 1371.0
-12.871561 263.08786 1371.0
-5.167421 264.04733 1376.0
2.5742726 263.08786 1371.0
10.297288 263.08786 1371.0
18.020205 263.08786 1371.0
25.743122 263.08786 1371.0
33.466038 263.08786 1371.0
41.188953 263.08786 1371.0
49.09035 264.04733 1376.0
56.841434 264.04733 1376.0
64.87417 265.1987 1382.0
72.3436 264.04733 1376.0
80.09467 264.04733 1376.0
87.84586 264.04733 1376.0
96.01379 265.1987 1382.0
103.79867 265.1987 1382.0
111.58355 265.1987 1382.0
119.88667 266.35007 1388.0
128.16548 267.30954 1393.0
136.01233 267.30954 1393.0
143.85918 267.30954 1393.0
151.16148 266.35007 1388.0
158.98016 266.35007 1388.0
167.3998 267.30954 1393.0
175.24664 267.30954 1393.0
183.09349 267.30954 1393.0
191.76277 268.4609 1399.0
198.78717 267.30954 1393.0
207.52415 268.4609 1399.0
215.40479 268.4609 1399.0
223.28543 268.4609 1399.0
231.16608 268.4609 1399.0
239.0467 268.4609 1399.0
247.80998 269.42038 1404.0
255.71878 269.42038 1404.0
263.6276 269.42038 1404.0
271.5364 269.42038 1404.0
278.45 268.4609 1399.0
287.35413 269.42038 1404.0
295.2629 269.42038 1404.0
304.46732 270.57175 1410.0
312.4099 270.57175 1410.0
320.35254 270.57175 1410.0
328.29526 270.57175 1410.0
336.23788 270.57175 1410.0
345.64505 271.7231 1416.0
353.62146 271.7231 1416.0
361.59787 271.7231 1416.0
369.57437 271.7231 1416.0
377.55078 271.7231 1416.0
385.5272 271.7231 1416.0
393.50357 271.7231 1416.0
