ply
format ascii 1.0
element vertex 1717
property float x
property float y
property float z
end_header
1226.4503 249.72856 2107.0
1245.9596 251.26938 2120.0
1257.9016 251.26938 2120.0
1269.8438 251.26938 2120.0
-1139.8926 220.34045 1952.0
-1128.8969 220.34045 1952.0
-1111.6014 219.09877 1941.0
-1113.7102 221.695 1964.0
-1102.6467 221.695 1964.0
-1097.6971 222.93668 1975.0
-1080.5201 221.695 1964.0
-1029.9352 220.34045 1952.0
-1025.2034 221.695 1964.0
-1019.82 222.93668 1975.0
-1008.6947 222.93668 1975.0
-1003.1255 224.17834 1986.0
-991.93823 224.17834 1986.0
-702.2295 160.5144 1422.0
-694.2193 160.5144 1422.0
-686.2091 160.5144 1422.0
-678.19885 160.5144 1422.0
-667.3609 159.83713 1416.0
-662.1784 160.5144 1422.0
-656.9284 161.19168 1428.0
-654.33716 162.54623 1440.0
-643.5329 161.86896 1434.0
-646.0904 164.57806 1458.0
-835.31635 224.17834 1986.0
-824.12915 224.17834 1986.0
-812.9418 224.17834 1986.0
-797.31384 222.93668 1975.0
-790.5674 224.17834 1986.0
-779.38 224.17834 1986.0
-768.1928 224.17834 1986.0
-757.00543 224.17834 1986.0
-745.81824 224.17834 1986.0
-734.631 224.17834 1986.0
-727.81494 225.5329 1998.0
-716.56006 225.5329 1998.0
-705.3052 225.5329 1998.0
-694.0503 225.5329 1998.0
-682.7955 225.5329 1998.0
-560.96155 188.3956 1669.0
-554.2038 189.29863 1677.0
-544.7571 189.29863 1677.0
-538.18335 190.31454 1686.0
-528.686 190.31454 1686.0
-519.1886 190.31454 1686.0
-512.10974 191.21758 1694.0
-502.5673 191.21758 1694.0
-495.35324 192.12062 1702.0
-488.33444 193.13654 1711.0
-478.69623 193.13654 1711.0
-471.25122 194.03957 1719.0
-461.56796 194.03957 1719.0
-454.2506 195.05548 1728.0
-444.5167 195.05548 1728.0
-436.7956 195.95851 1736.0
-425.0488 195.05548 1728.0
-415.31482 195.05548 1728.0
-407.4586 195.95851 1736.0
-399.74133 196.97443 1745.0
-389.9116 196.97443 1745.0
-380.08188 196.97443 1745.0
-370.25214 196.97443 1745.0
-360.4225 196.97443 1745.0
-354.20923 199.00626 1763.0
-344.27808 199.00626 1763.0
-334.34702 199.00626 1763.0
-326.07202 200.02217 1772.0
-316.09024 200.02217 1772.0
-307.66318 201.03809 1781.0
-297.63065 201.03809 1781.0
-287.59818 201.03809 1781.0
-277.56564 201.03809 1781.0
-267.53317 201.03809 1781.0
-260.24777 203.18279 1800.0
-251.35875 204.1987 1809.0
-241.16855 204.1987 1809.0
-229.82916 203.18279 1800.0
-220.7881 204.1987 1809.0
-210.59792 204.1987 1809.0
-201.51549 205.3275 1819.0
-187.58116 225.5329 1998.0
-177.29709 226.77457 2009.0
-166.97163 228.12912 2021.0
-154.6634 226.77457 2009.0
-143.34653 226.77457 2009.0
-132.02972 226.77457 2009.0
-120.71293 226.77457 2009.0
-110.049484 228.12912 2021.0
-98.07924 226.77457 2009.0
-87.2806 228.12912 2021.0
-75.8962 228.12912 2021.0
-64.5118 228.12912 2021.0
-53.127327 228.12912 2021.0
-41.742928 228.12912 2021.0
-30.358452 228.12912 2021.0
-18.97405 228.12912 2021.0
-7.589649 228.12912 2021.0
3.7722206 226.77457 2009.0
15.0891695 226.77457 2009.0
26.5637 228.12912 2021.0
37.9481 228.12912 2021.0
49.3325 228.12912 2021.0
60.716904 228.12912 2021.0
72.10145 228.12912 2021.0
83.485855 228.12912 2021.0
94.870255 228.12912 2021.0
106.254654 228.12912 2021.0
117.63905 228.12912 2021.0
129.0236 228.12912 2021.0
140.408 228.12912 2021.0
151.7924 228.12912 2021.0
164.14569 229.48367 2033.0
175.5977 229.48367 2033.0
187.04984 229.48367 2033.0
198.50183 229.48367 2033.0
208.71455 228.12912 2021.0
220.09897 228.12912 2021.0
231.48335 228.12912 2021.0
244.30998 229.48367 2033.0
255.76198 229.48367 2033.0
268.79123 230.83823 2045.0
278.666 229.48367 2033.0
290.11798 229.48367 2033.0
301.5701 229.48367 2033.0
313.02213 229.48367 2033.0
324.47412 229.48367 2033.0
337.90894 230.83823 2045.0
349.42853 230.83823 2045.0
363.0663 232.19278 2057.0
374.65353 232.19278 2057.0
386.2407 232.19278 2057.0
397.82788 232.19278 2057.0
409.4151 232.19278 2057.0
421.0024 232.19278 2057.0
432.58963 232.19278 2057.0
444.17682 232.19278 2057.0
455.76398 232.19278 2057.0
467.3512 232.19278 2057.0
478.9385 232.19278 2057.0
490.52573 232.19278 2057.0
502.1129 232.19278 2057.0
516.6969 233.54733 2069.0
528.3517 233.54733 2069.0
540.00665 233.54733 2069.0
548.46185 232.19278 2057.0
560.049 232.19278 2057.0
574.971 233.54733 2069.0
586.6258 233.54733 2069.0
594.8107 232.19278 2057.0
606.39795 232.19278 2057.0
621.5903 233.54733 2069.0
633.2451 233.54733 2069.0
648.9519 235.01476 2082.0
664.80536 236.4822 2095.0
672.40814 235.01476 2082.0
684.1361 235.01476 2082.0
695.86414 235.01476 2082.0
712.0103 236.4822 2095.0
723.81177 236.4822 2095.0
735.613 236.4822 2095.0
747.41425 236.4822 2095.0
759.2155 236.4822 2095.0
771.0167 236.4822 2095.0
782.8182 236.4822 2095.0
794.6194 236.4822 2095.0
811.03973 237.83675 2107.0
822.90857 237.83675 2107.0
834.7774 237.83675 2107.0
846.6465 237.83675 2107.0
858.5153 237.83675 2107.0
870.38416 237.83675 2107.0
882.2529 237.83675 2107.0
894.12177 237.83675 2107.0
905.99084 237.83675 2107.0
917.8597 237.83675 2107.0
935.46484 239.30417 2120.0
941.59735 237.83675 2107.0
953.4662 237.83675 2107.0
965.3352 237.83675 2107.0
983.2333 239.30417 2120.0
1001.27783 240.7716 2133.0
1013.29315 240.7716 2133.0
1019.0595 239.30417 2120.0
1024.6796 237.83675 2107.0
1036.5485 237.83675 2107.0
1048.4172 237.83675 2107.0
1066.828 239.30417 2120.0
1072.1549 237.83675 2107.0
1090.7123 239.30417 2120.0
1102.6543 239.30417 2120.0
1114.5964 239.30417 2120.0
1126.5385 239.30417 2120.0
1138.4806 239.30417 2120.0
1150.4229 239.30417 2120.0
1162.3649 239.30417 2120.0
1174.3069 239.30417 2120.0
1178.9749 237.83675 2107.0
1198.191 239.30417 2120.0
1202.7126 237.83675 2107.0
1222.0753 239.30417 2120.0
1226.4503 237.83675 2107.0
1245.9596 239.30417 2120.0
1257.9016 239.30417 2120.0
1277.6306 240.7716 2133.0
-1139.8926 209.32344 1952.0
-1128.8969 209.32344 1952.0
-1117.9011 209.32344 1952.0
-1106.9054 209.32344 1952.0
-1102.6467 210.61026 1964.0
-1091.5835 210.61026 1964.0
-1080.5201 210.61026 1964.0
-1036.2667 210.61026 1964.0
-1025.2034 210.61026 1964.0
-1019.82 211.78986 1975.0
-1008.6947 211.78986 1975.0
-1003.1255 212.96944 1986.0
-986.4441 211.78986 1975.0
-702.2295 152.4887 1422.0
-697.1485 153.13211 1428.0
-686.2091 152.4887 1422.0
-681.0604 153.13211 1428.0
-673.0165 153.13211 1428.0
-664.9724 153.13211 1428.0
-659.6886 153.77551 1434.0
-654.33716 154.41893 1440.0
-648.91815 155.06235 1446.0
-646.0904 156.34917 1458.0
-830.68976 211.78986 1975.0
-819.56445 211.78986 1975.0
-812.9418 212.96944 1986.0
-801.7546 212.96944 1986.0
-786.18854 211.78986 1975.0
-779.38 212.96944 1986.0
-768.1928 212.96944 1986.0
-757.00543 212.96944 1986.0
-745.81824 212.96944 1986.0
-734.631 212.96944 1986.0
-727.81494 214.25627 1998.0
-716.56006 214.25627 1998.0
-705.3052 214.25627 1998.0
-694.0503 214.25627 1998.0
-678.69464 212.96944 1986.0
-560.96155 178.97583 1669.0
-551.56 178.97583 1669.0
-542.1584 178.97583 1669.0
-535.3105 179.83371 1677.0
-528.686 180.79883 1686.0
-521.65216 181.65671 1694.0
-512.10974 181.65671 1694.0
-502.5673 181.65671 1694.0
-495.35324 182.51459 1702.0
-488.33444 183.4797 1711.0
-478.69623 183.4797 1711.0
-471.25122 184.33759 1719.0
-461.56796 184.33759 1719.0
-451.88474 184.33759 1719.0
-442.2015 184.33759 1719.0
-434.7827 185.30272 1728.0
-425.0488 185.30272 1728.0
-417.23758 186.1606 1736.0
-407.4586 186.1606 1736.0
-399.74133 187.12572 1745.0
-387.90054 186.1606 1736.0
-378.1216 186.1606 1736.0
-368.34256 186.1606 1736.0
-360.4225 187.12572 1745.0
-350.5928 187.12572 1745.0
-342.52057 188.09084 1754.0
-334.34702 189.05595 1763.0
-326.07202 190.02106 1772.0
-317.69565 190.98619 1781.0
-306.10846 190.02106 1772.0
-296.12662 190.02106 1772.0
-287.59818 190.98619 1781.0
-277.56564 190.98619 1781.0
-267.53317 190.98619 1781.0
-258.80194 191.95131 1790.0
-251.35875 193.98877 1809.0
-241.16855 193.98877 1809.0
-228.55234 191.95131 1790.0
-219.68965 193.02367 1800.0
-210.59792 193.98877 1809.0
-201.51549 195.06113 1819.0
-181.02237 195.06113 1819.0
-176.32632 214.25627 1998.0
-165.98022 215.43585 2009.0
-154.6634 215.43585 2009.0
-143.34653 215.43585 2009.0
-132.02972 215.43585 2009.0
-120.71293 215.43585 2009.0
-110.049484 216.72267 2021.0
-98.07924 215.43585 2009.0
-87.2806 216.72267 2021.0
-75.8962 216.72267 2021.0
-64.5118 216.72267 2021.0
-53.127327 216.72267 2021.0
-41.742928 216.72267 2021.0
-30.53871 218.0095 2033.0
-19.086712 218.0095 2033.0
-7.589649 216.72267 2021.0
3.7722206 215.43585 2009.0
15.0891695 215.43585 2009.0
26.5637 216.72267 2021.0
37.9481 216.72267 2021.0
49.3325 216.72267 2021.0
60.716904 216.72267 2021.0
72.10145 216.72267 2021.0
83.485855 216.72267 2021.0
94.870255 216.72267 2021.0
106.254654 216.72267 2021.0
117.63905 216.72267 2021.0
129.0236 216.72267 2021.0
140.408 216.72267 2021.0
151.7924 216.72267 2021.0
163.17682 216.72267 2021.0
175.5977 218.0095 2033.0
188.15392 219.29633 2045.0
198.50183 218.0095 2033.0
208.71455 216.72267 2021.0
220.09897 216.72267 2021.0
231.48335 216.72267 2021.0
244.30998 218.0095 2033.0
255.76198 218.0095 2033.0
267.21396 218.0095 2033.0
278.666 218.0095 2033.0
288.40552 216.72267 2021.0
301.5701 218.0095 2033.0
313.02213 218.0095 2033.0
324.47412 218.0095 2033.0
337.90894 219.29633 2045.0
349.42853 219.29633 2045.0
363.0663 220.58316 2057.0
372.4679 219.29633 2045.0
383.9875 219.29633 2045.0
395.50705 219.29633 2045.0
407.02664 219.29633 2045.0
418.54642 219.29633 2045.0
432.58963 220.58316 2057.0
444.17682 220.58316 2057.0
455.76398 220.58316 2057.0
467.3512 220.58316 2057.0
478.9385 220.58316 2057.0
490.52573 220.58316 2057.0
505.0421 221.86996 2069.0
516.6969 221.86996 2069.0
528.3517 221.86996 2069.0
540.00665 221.86996 2069.0
548.46185 220.58316 2057.0
560.049 220.58316 2057.0
574.971 221.86996 2069.0
586.6258 221.86996 2069.0
598.2807 221.86996 2069.0
606.39795 220.58316 2057.0
621.5903 221.86996 2069.0
637.2239 223.26404 2082.0
648.9519 223.26404 2082.0
660.6801 223.26404 2082.0
672.40814 223.26404 2082.0
688.40784 224.6581 2095.0
700.20917 224.6581 2095.0
712.0103 224.6581 2095.0
723.81177 224.6581 2095.0
735.613 224.6581 2095.0
747.41425 224.6581 2095.0
759.2155 224.6581 2095.0
771.0167 224.6581 2095.0
782.8182 224.6581 2095.0
794.6194 224.6581 2095.0
806.42065 224.6581 2095.0
822.90857 225.94493 2107.0
834.7774 225.94493 2107.0
846.6465 225.94493 2107.0
858.5153 225.94493 2107.0
870.38416 225.94493 2107.0
882.2529 225.94493 2107.0
894.12177 225.94493 2107.0
905.99084 225.94493 2107.0
917.8597 225.94493 2107.0
929.7285 225.94493 2107.0
941.59735 225.94493 2107.0
953.4662 225.94493 2107.0
965.3352 225.94493 2107.0
977.20404 225.94493 2107.0
989.0729 225.94493 2107.0
1007.1175 227.33897 2120.0
1019.0595 227.33897 2120.0
1024.6796 225.94493 2107.0
1036.5485 225.94493 2107.0
1048.4172 225.94493 2107.0
1066.828 227.33897 2120.0
1072.1549 225.94493 2107.0
1084.0239 225.94493 2107.0
1095.8928 225.94493 2107.0
1107.7616 225.94493 2107.0
1119.6305 225.94493 2107.0
1138.4806 227.33897 2120.0
1150.4229 227.33897 2120.0
1162.3649 227.33897 2120.0
1174.3069 227.33897 2120.0
1178.9749 225.94493 2107.0
1198.191 227.33897 2120.0
1210.1333 227.33897 2120.0
1222.0753 227.33897 2120.0
1234.0175 227.33897 2120.0
1238.3192 225.94493 2107.0
1257.9016 227.33897 2120.0
1269.8438 227.33897 2120.0
-1146.9003 199.52553 1964.0
-1135.8368 199.52553 1964.0
-1124.7734 199.52553 1964.0
-1113.7102 199.52553 1964.0
-1102.6467 199.52553 1964.0
-1091.5835 199.52553 1964.0
-1080.5201 199.52553 1964.0
-1036.2667 199.52553 1964.0
-1018.93933 198.30643 1952.0
-1019.82 200.64304 1975.0
-1008.6947 200.64304 1975.0
-997.5694 200.64304 1975.0
-980.95 199.52553 1964.0
-702.2295 144.46298 1422.0
-697.1485 145.07254 1428.0
-686.2091 144.46298 1422.0
-678.19885 144.46298 1422.0
-670.1886 144.46298 1422.0
-664.9724 145.07254 1428.0
-656.9284 145.07254 1428.0
-654.33716 146.29163 1440.0
-648.91815 146.90117 1446.0
-643.4316 147.51073 1452.0
-637.8773 148.12027 1458.0
-830.68976 200.64304 1975.0
-819.56445 200.64304 1975.0
-812.9418 201.76053 1986.0
-801.7546 201.76053 1986.0
-790.5674 201.76053 1986.0
-779.38 201.76053 1986.0
-768.1928 201.76053 1986.0
-757.00543 201.76053 1986.0
-750.32465 202.97963 1998.0
-734.631 201.76053 1986.0
-727.81494 202.97963 1998.0
-712.2564 201.76053 1986.0
-701.0691 201.76053 1986.0
-694.0503 202.97963 1998.0
-542.1584 169.55606 1669.0
-535.3105 170.36879 1677.0
-528.686 171.28311 1686.0
-521.65216 172.09586 1694.0
-512.10974 172.09586 1694.0
-504.9407 172.90857 1702.0
-495.35324 172.90857 1702.0
-488.33444 173.82289 1711.0
-478.69623 173.82289 1711.0
-471.25122 174.63564 1719.0
-461.56796 174.63564 1719.0
-449.7817 173.82289 1711.0
-440.14355 173.82289 1711.0
-432.51822 174.63564 1719.0
-427.01663 176.36269 1736.0
-417.23758 176.36269 1736.0
-409.57098 177.277 1745.0
-397.6796 176.36269 1736.0
-387.90054 176.36269 1736.0
-378.1216 176.36269 1736.0
-368.34256 176.36269 1736.0
-360.4225 177.277 1745.0
-352.401 178.19133 1754.0
-342.52057 178.19133 1754.0
-336.05383 180.01997 1772.0
-327.72812 180.9343 1781.0
-317.69565 180.9343 1781.0
-306.10846 180.01997 1772.0
-296.12662 180.01997 1772.0
-287.59818 180.9343 1781.0
-277.56564 180.9343 1781.0
-267.53317 180.9343 1781.0
-258.80194 181.84862 1790.0
-250.1082 182.86453 1800.0
-241.16855 183.77885 1809.0
-229.82916 182.86453 1800.0
-220.7881 183.77885 1809.0
-211.76208 184.79477 1819.0
-201.51549 184.79477 1819.0
-190.21745 183.77885 1809.0
-181.02237 184.79477 1819.0
-177.29709 204.09714 2009.0
-165.98022 204.09714 2009.0
-155.58723 205.31622 2021.0
-144.20276 205.31622 2021.0
-132.02972 204.09714 2009.0
-120.71293 204.09714 2009.0
-110.049484 205.31622 2021.0
-98.66508 205.31622 2021.0
-87.2806 205.31622 2021.0
-75.44556 204.09714 2009.0
-64.5118 205.31622 2021.0
-53.127327 205.31622 2021.0
-41.990784 206.53532 2033.0
-30.53871 206.53532 2033.0
-19.086712 206.53532 2033.0
-7.634714 206.53532 2033.0
3.7947524 205.31622 2021.0
15.0891695 204.09714 2009.0
26.405973 204.09714 2009.0
37.72278 204.09714 2009.0
49.3325 205.31622 2021.0
60.356388 204.09714 2009.0
71.67334 204.09714 2009.0
83.485855 205.31622 2021.0
94.870255 205.31622 2021.0
106.254654 205.31622 2021.0
117.63905 205.31622 2021.0
129.0236 205.31622 2021.0
140.408 205.31622 2021.0
152.6937 206.53532 2033.0
163.17682 205.31622 2021.0
174.5612 205.31622 2021.0
187.04984 206.53532 2033.0
198.50183 206.53532 2033.0
208.71455 205.31622 2021.0
220.09897 205.31622 2021.0
232.85783 206.53532 2033.0
244.30998 206.53532 2033.0
255.76198 206.53532 2033.0
265.63672 205.31622 2021.0
278.666 206.53532 2033.0
290.11798 206.53532 2033.0
301.5701 206.53532 2033.0
313.02213 206.53532 2033.0
326.38934 207.75443 2045.0
337.90894 207.75443 2045.0
349.42853 207.75443 2045.0
360.9483 207.75443 2045.0
372.4679 207.75443 2045.0
383.9875 207.75443 2045.0
393.18625 206.53532 2033.0
407.02664 207.75443 2045.0
421.0024 208.97353 2057.0
432.58963 208.97353 2057.0
444.17682 208.97353 2057.0
455.76398 208.97353 2057.0
467.3512 208.97353 2057.0
478.9385 208.97353 2057.0
490.52573 208.97353 2057.0
505.0421 210.19263 2069.0
516.6969 210.19263 2069.0
528.3517 210.19263 2069.0
540.00665 210.19263 2069.0
548.46185 208.97353 2057.0
560.049 208.97353 2057.0
571.63617 208.97353 2057.0
586.6258 210.19263 2069.0
598.2807 210.19263 2069.0
609.9355 210.19263 2069.0
621.5903 210.19263 2069.0
633.2451 210.19263 2069.0
644.8999 210.19263 2069.0
656.55475 210.19263 2069.0
672.40814 211.5133 2082.0
684.1361 211.5133 2082.0
700.20917 212.834 2095.0
712.0103 212.834 2095.0
723.81177 212.834 2095.0
735.613 212.834 2095.0
747.41425 212.834 2095.0
759.2155 212.834 2095.0
771.0167 212.834 2095.0
782.8182 212.834 2095.0
799.1709 214.05309 2107.0
811.03973 214.05309 2107.0
822.90857 214.05309 2107.0
834.7774 214.05309 2107.0
846.6465 214.05309 2107.0
858.5153 214.05309 2107.0
870.38416 214.05309 2107.0
882.2529 214.05309 2107.0
894.12177 214.05309 2107.0
905.99084 214.05309 2107.0
917.8597 214.05309 2107.0
929.7285 214.05309 2107.0
941.59735 214.05309 2107.0
953.4662 214.05309 2107.0
965.3352 214.05309 2107.0
977.20404 214.05309 2107.0
989.0729 214.05309 2107.0
1000.9417 214.05309 2107.0
1019.0595 215.37378 2120.0
1031.0017 215.37378 2120.0
1036.5485 214.05309 2107.0
1048.4172 214.05309 2107.0
1066.828 215.37378 2120.0
1078.77 215.37378 2120.0
1090.7123 215.37378 2120.0
1095.8928 214.05309 2107.0
1107.7616 214.05309 2107.0
1119.6305 214.05309 2107.0
1138.4806 215.37378 2120.0
1150.4229 215.37378 2120.0
1162.3649 215.37378 2120.0
1174.3069 215.37378 2120.0
1178.9749 214.05309 2107.0
1198.191 215.37378 2120.0
1217.554 216.69447 2133.0
1229.5692 216.69447 2133.0
1234.0175 215.37378 2120.0
1245.9596 215.37378 2120.0
1257.9016 215.37378 2120.0
1269.8438 215.37378 2120.0
-1146.9003 188.44072 1964.0
-1128.8969 187.28937 1952.0
-1117.9011 187.28937 1952.0
-1106.9054 187.28937 1952.0
-1095.9097 187.28937 1952.0
-1084.9138 187.28937 1952.0
-1080.5201 188.44072 1964.0
-1047.3301 188.44072 1964.0
-1029.9352 187.28937 1952.0
-1018.93933 187.28937 1952.0
-1014.14 188.44072 1964.0
-1003.0767 188.44072 1964.0
-1003.1255 190.55157 1986.0
-980.95 188.44072 1964.0
-705.1925 137.01291 1428.0
-697.1485 137.01291 1428.0
-686.2091 136.43723 1422.0
-675.3372 135.86154 1416.0
-670.1886 136.43723 1422.0
-664.9724 137.01291 1428.0
-656.9284 137.01291 1428.0
-651.6108 137.58861 1434.0
-646.2256 138.16429 1440.0
-643.4316 139.31564 1452.0
-635.2523 139.31564 1452.0
-830.68976 189.49614 1975.0
-824.12915 190.55157 1986.0
-808.43915 189.49614 1975.0
-801.7546 190.55157 1986.0
-790.5674 190.55157 1986.0
-779.38 190.55157 1986.0
-768.1928 190.55157 1986.0
-757.00543 190.55157 1986.0
-750.32465 191.70294 1998.0
-739.0698 191.70294 1998.0
-723.44366 190.55157 1986.0
-712.2564 190.55157 1986.0
-701.0691 190.55157 1986.0
-694.0503 191.70294 1998.0
-682.7955 191.70294 1998.0
-535.3105 160.90382 1677.0
-528.686 161.76735 1686.0
-519.1886 161.76735 1686.0
-514.5282 163.3025 1702.0
-504.9407 163.3025 1702.0
-493.0249 162.53493 1694.0
-485.76575 163.3025 1702.0
-476.17825 163.3025 1702.0
-469.0581 164.16603 1711.0
-459.41986 164.16603 1711.0
-447.41583 163.3025 1702.0
-437.82834 163.3025 1702.0
-432.51822 164.93361 1719.0
-427.01663 166.56473 1736.0
-417.23758 166.56473 1736.0
-407.4586 166.56473 1736.0
-397.6796 166.56473 1736.0
-387.90054 166.56473 1736.0
-378.1216 166.56473 1736.0
-368.34256 166.56473 1736.0
-360.4225 167.42825 1745.0
-352.401 168.29176 1754.0
-342.52057 168.29176 1754.0
-334.34702 169.15529 1763.0
-326.07202 170.01883 1772.0
-316.09024 170.01883 1772.0
-306.10846 170.01883 1772.0
-294.6226 169.15529 1763.0
-286.14484 170.01883 1772.0
-277.56564 170.88235 1781.0
-268.88513 171.74588 1790.0
-258.80194 171.74588 1790.0
-248.71872 171.74588 1790.0
-239.96872 172.70535 1800.0
-229.82916 172.70535 1800.0
-219.68965 172.70535 1800.0
-210.59792 173.56888 1809.0
-201.51549 174.52835 1819.0
-192.21532 175.39188 1828.0
-181.02237 174.52835 1819.0
-188.61389 192.75836 2009.0
-176.32632 191.70294 1998.0
-165.98022 192.75836 2009.0
-155.58723 193.90974 2021.0
-143.34653 192.75836 2009.0
-132.02972 192.75836 2009.0
-120.71293 192.75836 2009.0
-110.049484 193.90974 2021.0
-98.66508 193.90974 2021.0
-87.2806 193.90974 2021.0
-75.44556 192.75836 2009.0
-64.12875 192.75836 2009.0
-53.127327 193.90974 2021.0
-41.742928 193.90974 2021.0
-30.53871 195.0611 2033.0
-19.086712 195.0611 2033.0
-7.589649 193.90974 2021.0
3.7722206 192.75836 2009.0
15.0891695 192.75836 2009.0
26.5637 193.90974 2021.0
37.9481 193.90974 2021.0
49.3325 193.90974 2021.0
60.356388 192.75836 2009.0
71.67334 192.75836 2009.0
83.485855 193.90974 2021.0
94.870255 193.90974 2021.0
106.254654 193.90974 2021.0
117.63905 193.90974 2021.0
129.7897 195.0611 2033.0
141.2417 195.0611 2033.0
152.6937 195.0611 2033.0
164.14569 195.0611 2033.0
175.5977 195.0611 2033.0
187.04984 195.0611 2033.0
198.50183 195.0611 2033.0
209.95384 195.0611 2033.0
220.09897 193.90974 2021.0
231.48335 193.90974 2021.0
242.86792 193.90974 2021.0
254.2523 193.90974 2021.0
267.21396 195.0611 2033.0
280.31082 196.21246 2045.0
288.40552 193.90974 2021.0
301.5701 195.0611 2033.0
313.02213 195.0611 2033.0
326.38934 196.21246 2045.0
337.90894 196.21246 2045.0
349.42853 196.21246 2045.0
363.0663 197.36385 2057.0
374.65353 197.36385 2057.0
383.9875 196.21246 2045.0
393.18625 195.0611 2033.0
407.02664 196.21246 2045.0
418.54642 196.21246 2045.0
430.066 196.21246 2045.0
444.17682 197.36385 2057.0
455.76398 197.36385 2057.0
467.3512 197.36385 2057.0
478.9385 197.36385 2057.0
493.3873 198.51521 2069.0
505.0421 198.51521 2069.0
516.6969 198.51521 2069.0
528.3517 198.51521 2069.0
540.00665 198.51521 2069.0
548.46185 197.36385 2057.0
560.049 197.36385 2057.0
571.63617 197.36385 2057.0
583.2234 197.36385 2057.0
594.8107 197.36385 2057.0
606.39795 197.36385 2057.0
621.5903 198.51521 2069.0
633.2451 198.51521 2069.0
644.8999 198.51521 2069.0
652.7469 197.36385 2057.0
668.2096 198.51521 2069.0
684.1361 199.76253 2082.0
700.20917 201.00984 2095.0
712.0103 201.00984 2095.0
723.81177 201.00984 2095.0
735.613 201.00984 2095.0
747.41425 201.00984 2095.0
759.2155 201.00984 2095.0
771.0167 201.00984 2095.0
782.8182 201.00984 2095.0
794.6194 201.00984 2095.0
806.42065 201.00984 2095.0
822.90857 202.16121 2107.0
834.7774 202.16121 2107.0
846.6465 202.16121 2107.0
858.5153 202.16121 2107.0
870.38416 202.16121 2107.0
882.2529 202.16121 2107.0
894.12177 202.16121 2107.0
905.99084 202.16121 2107.0
912.63214 201.00984 2095.0
929.7285 202.16121 2107.0
941.59735 202.16121 2107.0
953.4662 202.16121 2107.0
965.3352 202.16121 2107.0
977.20404 202.16121 2107.0
989.0729 202.16121 2107.0
1000.9417 202.16121 2107.0
1019.0595 203.40852 2120.0
1031.0017 203.40852 2120.0
1036.5485 202.16121 2107.0
1048.4172 202.16121 2107.0
1066.828 203.40852 2120.0
1078.77 203.40852 2120.0
1090.7123 203.40852 2120.0
1102.6543 203.40852 2120.0
1107.7616 202.16121 2107.0
1119.6305 202.16121 2107.0
1131.4993 202.16121 2107.0
1150.4229 203.40852 2120.0
1162.3649 203.40852 2120.0
1174.3069 203.40852 2120.0
1186.249 203.40852 2120.0
1198.191 203.40852 2120.0
1217.554 204.65584 2133.0
1229.5692 204.65584 2133.0
1234.0175 203.40852 2120.0
1238.3192 202.16121 2107.0
1250.188 202.16121 2107.0
1262.0571 202.16121 2107.0
-1139.8926 176.27234 1952.0
-1135.8368 177.356 1964.0
-1124.7734 177.356 1964.0
-1113.7102 177.356 1964.0
-1102.6467 177.356 1964.0
-1091.5835 177.356 1964.0
-1070.2491 179.34267 1986.0
-1053.1959 178.34932 1975.0
-1036.2667 177.356 1964.0
-1018.93933 176.27234 1952.0
-1007.94366 176.27234 1952.0
-1003.0767 177.356 1964.0
-1003.1255 179.34267 1986.0
-991.93823 179.34267 1986.0
-708.1555 129.49516 1434.0
-700.0777 129.49516 1434.0
-691.9999 129.49516 1434.0
-672.47565 127.327866 1410.0
-664.533 127.327866 1410.0
-662.1784 128.41151 1422.0
-656.9284 128.95334 1428.0
-657.0636 130.5788 1446.0
-651.6108 131.12062 1452.0
-643.4316 131.12062 1452.0
-830.68976 178.34932 1975.0
-819.56445 178.34932 1975.0
-808.43915 178.34932 1975.0
-801.7546 179.34267 1986.0
-790.5674 179.34267 1986.0
-779.38 179.34267 1986.0
-768.1928 179.34267 1986.0
-757.00543 179.34267 1986.0
-745.81824 179.34267 1986.0
-734.631 179.34267 1986.0
-723.44366 179.34267 1986.0
-712.2564 179.34267 1986.0
-701.0691 179.34267 1986.0
-694.0503 180.4263 1998.0
-682.7955 180.4263 1998.0
-535.3105 151.4389 1677.0
-525.86383 151.4389 1677.0
-519.1886 152.25163 1686.0
-512.10974 152.97406 1694.0
-507.61078 154.50922 1711.0
-495.35324 153.69649 1702.0
-488.33444 154.50922 1711.0
-476.17825 153.69649 1702.0
-469.0581 154.50922 1711.0
-459.41986 154.50922 1711.0
-449.7817 154.50922 1711.0
-437.82834 153.69649 1702.0
-430.5053 154.50922 1711.0
-422.835 155.23164 1719.0
-415.31482 156.04437 1728.0
-407.4586 156.7668 1736.0
-397.6796 156.7668 1736.0
-387.90054 156.7668 1736.0
-380.08188 157.57953 1745.0
-368.34256 156.7668 1736.0
-360.4225 157.57953 1745.0
-350.5928 157.57953 1745.0
-340.76306 157.57953 1745.0
-332.6402 158.39227 1754.0
-324.41586 159.20499 1763.0
-314.4848 159.20499 1763.0
-304.55374 159.20499 1763.0
-294.6226 159.20499 1763.0
-286.14484 160.01773 1772.0
-276.16302 160.01773 1772.0
-268.88513 161.64319 1790.0
-258.80194 161.64319 1790.0
-248.71872 161.64319 1790.0
-237.43571 160.83046 1781.0
-228.55234 161.64319 1790.0
-210.59792 163.35896 1809.0
-201.51549 164.262 1819.0
-192.21532 165.07472 1828.0
-186.45456 179.34267 1986.0
-176.32632 180.4263 1998.0
-165.07141 180.4263 1998.0
-154.6634 181.41965 2009.0
-142.56166 180.4263 1998.0
-131.30682 180.4263 1998.0
-120.71293 181.41965 2009.0
-110.049484 182.5033 2021.0
-98.66508 182.5033 2021.0
-87.2806 182.5033 2021.0
-75.44556 181.41965 2009.0
-64.12875 181.41965 2009.0
-53.127327 182.5033 2021.0
-41.742928 182.5033 2021.0
-30.53871 183.58693 2033.0
-18.97405 182.5033 2021.0
-7.589649 182.5033 2021.0
3.7722206 181.41965 2009.0
15.0891695 181.41965 2009.0
26.405973 181.41965 2009.0
37.9481 182.5033 2021.0
49.039585 181.41965 2009.0
60.356388 181.41965 2009.0
71.67334 181.41965 2009.0
83.485855 182.5033 2021.0
94.870255 182.5033 2021.0
106.254654 182.5033 2021.0
117.63905 182.5033 2021.0
129.0236 182.5033 2021.0
140.408 182.5033 2021.0
151.7924 182.5033 2021.0
163.17682 182.5033 2021.0
174.5612 182.5033 2021.0
187.04984 183.58693 2033.0
198.50183 183.58693 2033.0
208.71455 182.5033 2021.0
220.09897 182.5033 2021.0
231.48335 182.5033 2021.0
242.86792 182.5033 2021.0
255.76198 183.58693 2033.0
268.79123 184.67056 2045.0
280.31082 184.67056 2045.0
290.11798 183.58693 2033.0
299.79007 182.5033 2021.0
313.02213 183.58693 2033.0
326.38934 184.67056 2045.0
337.90894 184.67056 2045.0
349.42853 184.67056 2045.0
360.9483 184.67056 2045.0
372.4679 184.67056 2045.0
383.9875 184.67056 2045.0
393.18625 183.58693 2033.0
407.02664 184.67056 2045.0
418.54642 184.67056 2045.0
430.066 184.67056 2045.0
441.5856 184.67056 2045.0
455.76398 185.75421 2057.0
467.3512 185.75421 2057.0
478.9385 185.75421 2057.0
490.52573 185.75421 2057.0
505.0421 186.83786 2069.0
513.7001 185.75421 2057.0
525.2873 185.75421 2057.0
540.00665 186.83786 2069.0
548.46185 185.75421 2057.0
560.049 185.75421 2057.0
571.63617 185.75421 2057.0
583.2234 185.75421 2057.0
594.8107 185.75421 2057.0
606.39795 185.75421 2057.0
621.5903 186.83786 2069.0
629.5723 185.75421 2057.0
644.8999 186.83786 2069.0
652.7469 185.75421 2057.0
672.40814 188.0118 2082.0
684.1361 188.0118 2082.0
700.20917 189.18575 2095.0
712.0103 189.18575 2095.0
723.81177 189.18575 2095.0
726.48364 186.83786 2069.0
742.77637 188.0118 2082.0
754.50433 188.0118 2082.0
771.0167 189.18575 2095.0
782.8182 189.18575 2095.0
794.6194 189.18575 2095.0
806.42065 189.18575 2095.0
822.90857 190.26938 2107.0
834.7774 190.26938 2107.0
846.6465 190.26938 2107.0
858.5153 190.26938 2107.0
870.38416 190.26938 2107.0
882.2529 190.26938 2107.0
889.0295 189.18575 2095.0
900.83093 189.18575 2095.0
912.63214 189.18575 2095.0
929.7285 190.26938 2107.0
941.59735 190.26938 2107.0
953.4662 190.26938 2107.0
965.3352 190.26938 2107.0
977.20404 190.26938 2107.0
989.0729 190.26938 2107.0
1000.9417 190.26938 2107.0
1012.81055 190.26938 2107.0
1031.0017 191.44333 2120.0
1042.9437 191.44333 2120.0
1054.8859 191.44333 2120.0
1060.2861 190.26938 2107.0
1072.1549 190.26938 2107.0
1084.0239 190.26938 2107.0
1102.6543 191.44333 2120.0
1101.4526 189.18575 2095.0
1119.6305 190.26938 2107.0
1131.4993 190.26938 2107.0
1143.3683 190.26938 2107.0
1162.3649 191.44333 2120.0
1174.3069 191.44333 2120.0
1186.249 191.44333 2120.0
1198.191 191.44333 2120.0
1210.1333 191.44333 2120.0
1222.0753 191.44333 2120.0
1234.0175 191.44333 2120.0
1245.9596 191.44333 2120.0
1250.188 190.26938 2107.0
1254.8691 189.18575 2095.0
-1139.8926 165.25534 1952.0
-1135.8368 166.27126 1964.0
-1131.0731 167.2025 1975.0
-1126.1855 168.13376 1986.0
-1108.8225 167.2025 1975.0
-1064.3213 167.2025 1975.0
-1053.1959 167.2025 1975.0
-1036.2667 166.27126 1964.0
-1025.2034 166.27126 1964.0
-1007.94366 165.25534 1952.0
-996.94794 165.25534 1952.0
-997.5694 167.2025 1975.0
-716.2334 121.40172 1434.0
-711.1185 121.909676 1440.0
-708.8653 122.92559 1452.0
-703.5815 123.43355 1458.0
-716.3535 127.15856 1502.0
-707.89264 127.15856 1502.0
-699.43176 127.15856 1502.0
-688.2107 126.650604 1496.0
-667.96924 124.44946 1470.0
-662.83 125.042076 1477.0
-830.68976 167.2025 1975.0
-819.56445 167.2025 1975.0
-808.43915 167.2025 1975.0
-801.7546 168.13376 1986.0
-790.5674 168.13376 1986.0
-779.38 168.13376 1986.0
-768.1928 168.13376 1986.0
-757.00543 168.13376 1986.0
-745.81824 168.13376 1986.0
-734.631 168.13376 1986.0
-723.44366 168.13376 1986.0
-712.2564 168.13376 1986.0
-701.0691 168.13376 1986.0
-694.0503 169.14967 1998.0
-682.7955 169.14967 1998.0
-542.1584 141.29669 1669.0
-535.3105 141.97397 1677.0
-525.86383 141.97397 1677.0
-519.1886 142.73592 1686.0
-512.10974 143.4132 1694.0
-504.9407 144.09047 1702.0
-495.35324 144.09047 1702.0
-488.33444 144.8524 1711.0
-476.17825 144.09047 1702.0
-469.0581 144.8524 1711.0
-459.41986 144.8524 1711.0
-447.41583 144.09047 1702.0
-440.14355 144.8524 1711.0
-428.24084 144.09047 1702.0
-422.835 145.52968 1719.0
-415.31482 146.29161 1728.0
-407.4586 146.96889 1736.0
-397.6796 146.96889 1736.0
-387.90054 146.96889 1736.0
-380.08188 147.73082 1745.0
-370.25214 147.73082 1745.0
-360.4225 147.73082 1745.0
-350.5928 147.73082 1745.0
-340.76306 147.73082 1745.0
-330.93335 147.73082 1745.0
-324.41586 149.25468 1763.0
-314.4848 149.25468 1763.0
-306.10846 150.01663 1772.0
-294.6226 149.25468 1763.0
-284.69153 149.25468 1763.0
-274.76038 149.25468 1763.0
-267.53317 150.77856 1781.0
-257.5007 150.77856 1781.0
-248.71872 151.5405 1790.0
-238.63556 151.5405 1790.0
-228.55234 151.5405 1790.0
-220.7881 153.14903 1809.0
-210.59792 153.14903 1809.0
-201.51549 153.99562 1819.0
-186.45456 168.13376 1986.0
-176.32632 169.14967 1998.0
-165.98022 170.08093 2009.0
-153.81657 169.14967 1998.0
-141.70543 168.13376 1986.0
-130.51819 168.13376 1986.0
-120.71293 170.08093 2009.0
-109.39604 170.08093 2009.0
-98.66508 171.09685 2021.0
-86.76236 170.08093 2009.0
-75.8962 171.09685 2021.0
-64.5118 171.09685 2021.0
-53.127327 171.09685 2021.0
-41.742928 171.09685 2021.0
-30.358452 171.09685 2021.0
-18.97405 171.09685 2021.0
-7.589649 171.09685 2021.0
3.7722206 170.08093 2009.0
15.0891695 170.08093 2009.0
26.405973 170.08093 2009.0
37.9481 171.09685 2021.0
49.3325 171.09685 2021.0
60.716904 171.09685 2021.0
72.10145 171.09685 2021.0
83.485855 171.09685 2021.0
94.306946 170.08093 2009.0
106.254654 171.09685 2021.0
117.63905 171.09685 2021.0
129.0236 171.09685 2021.0
140.408 171.09685 2021.0
151.7924 171.09685 2021.0
163.17682 171.09685 2021.0
174.5612 171.09685 2021.0
187.04984 172.11276 2033.0
197.33015 171.09685 2021.0
208.71455 171.09685 2021.0
220.09897 171.09685 2021.0
231.48335 171.09685 2021.0
242.86792 171.09685 2021.0
255.76198 172.11276 2033.0
268.79123 173.12868 2045.0
278.666 172.11276 2033.0
290.11798 172.11276 2033.0
299.79007 171.09685 2021.0
313.02213 172.11276 2033.0
324.47412 172.11276 2033.0
335.92612 172.11276 2033.0
349.42853 173.12868 2045.0
360.9483 173.12868 2045.0
372.4679 173.12868 2045.0
383.9875 173.12868 2045.0
395.50705 173.12868 2045.0
407.02664 173.12868 2045.0
418.54642 173.12868 2045.0
432.58963 174.14458 2057.0
444.17682 174.14458 2057.0
453.1052 173.12868 2045.0
467.3512 174.14458 2057.0
478.9385 174.14458 2057.0
490.52573 174.14458 2057.0
505.0421 175.16049 2069.0
516.6969 175.16049 2069.0
525.2873 174.14458 2057.0
540.00665 175.16049 2069.0
548.46185 174.14458 2057.0
560.049 174.14458 2057.0
568.30145 173.12868 2045.0
583.2234 174.14458 2057.0
594.8107 174.14458 2057.0
606.39795 174.14458 2057.0
621.5903 175.16049 2069.0
629.5723 174.14458 2057.0
644.8999 175.16049 2069.0
656.55475 175.16049 2069.0
668.2096 175.16049 2069.0
684.1361 176.26108 2082.0
695.86414 176.26108 2082.0
712.0103 177.36165 2095.0
719.3204 176.26108 2082.0
726.48364 175.16049 2069.0
747.41425 177.36165 2095.0
754.50433 176.26108 2082.0
766.23236 176.26108 2082.0
782.8182 177.36165 2095.0
794.6194 177.36165 2095.0
806.42065 177.36165 2095.0
818.2219 177.36165 2095.0
834.7774 178.37756 2107.0
846.6465 178.37756 2107.0
858.5153 178.37756 2107.0
870.38416 178.37756 2107.0
882.2529 178.37756 2107.0
889.0295 177.36165 2095.0
900.83093 177.36165 2095.0
917.8597 178.37756 2107.0
929.7285 178.37756 2107.0
941.59735 178.37756 2107.0
953.4662 178.37756 2107.0
965.3352 178.37756 2107.0
977.20404 178.37756 2107.0
989.0729 178.37756 2107.0
1000.9417 178.37756 2107.0
1012.81055 178.37756 2107.0
1031.0017 179.47813 2120.0
1049.3392 180.5787 2133.0
1054.8859 179.47813 2120.0
1060.2861 178.37756 2107.0
1072.1549 178.37756 2107.0
1084.0239 178.37756 2107.0
1095.8928 178.37756 2107.0
1101.4526 177.36165 2095.0
1113.2539 177.36165 2095.0
1125.055 177.36165 2095.0
1136.8564 177.36165 2095.0
1155.2372 178.37756 2107.0
1174.3069 179.47813 2120.0
1178.9749 178.37756 2107.0
1190.8436 178.37756 2107.0
1202.7126 178.37756 2107.0
1222.0753 179.47813 2120.0
1234.0175 179.47813 2120.0
1245.9596 179.47813 2120.0
1257.9016 179.47813 2120.0
1262.0571 178.37756 2107.0
-1139.8926 154.23833 1952.0
-1135.8368 155.18651 1964.0
-1131.0731 156.05568 1975.0
-1119.9479 156.05568 1975.0
-1102.6467 155.18651 1964.0
-1053.1959 156.05568 1975.0
-1036.2667 155.18651 1964.0
-1025.2034 155.18651 1964.0
-1007.94366 154.23833 1952.0
-996.94794 154.23833 1952.0
-992.0133 155.18651 1964.0
-725.2237 114.73056 1452.0
-714.08154 114.25646 1446.0
-708.8653 114.73056 1452.0
-712.75024 116.70594 1477.0
-713.4919 118.20724 1496.0
-705.0649 118.20724 1496.0
-690.9709 118.68133 1502.0
-682.5101 118.68133 1502.0
-668.21515 117.65413 1489.0
-835.31635 156.92485 1986.0
-819.56445 156.05568 1975.0
-812.9418 156.92485 1986.0
-801.7546 156.92485 1986.0
-790.5674 156.92485 1986.0
-779.38 156.92485 1986.0
-763.9379 156.05568 1975.0
-752.8126 156.05568 1975.0
-745.81824 156.92485 1986.0
-734.631 156.92485 1986.0
-723.44366 156.92485 1986.0
-712.2564 156.92485 1986.0
-701.0691 156.92485 1986.0
-689.88184 156.92485 1986.0
-682.7955 157.87305 1998.0
-557.17804 133.22018 1686.0
-544.7571 132.50905 1677.0
-538.18335 133.22018 1686.0
-528.686 133.22018 1686.0
-519.1886 133.22018 1686.0
-514.5282 134.48444 1702.0
-502.5673 133.85231 1694.0
-495.35324 134.48444 1702.0
-483.48248 133.85231 1694.0
-473.94006 133.85231 1694.0
-466.59082 134.48444 1702.0
-459.41986 135.19559 1711.0
-447.41583 134.48444 1702.0
-437.82834 134.48444 1702.0
-428.24084 134.48444 1702.0
-422.835 135.8277 1719.0
-415.31482 136.53885 1728.0
-405.5809 136.53885 1728.0
-395.847 136.53885 1728.0
-387.90054 137.17097 1736.0
-378.1216 137.17097 1736.0
-370.25214 137.88211 1745.0
-360.4225 137.88211 1745.0
-350.5928 137.88211 1745.0
-342.52057 138.59325 1754.0
-332.6402 138.59325 1754.0
-324.41586 139.3044 1763.0
-314.4848 139.3044 1763.0
-306.10846 140.01552 1772.0
-294.6226 139.3044 1763.0
-286.14484 140.01552 1772.0
-276.16302 140.01552 1772.0
-266.18124 140.01552 1772.0
-257.5007 140.72667 1781.0
-248.71872 141.4378 1790.0
-238.63556 141.4378 1790.0
-228.55234 141.4378 1790.0
-218.46916 141.4378 1790.0
-210.59792 142.9391 1809.0
-201.51549 143.72925 1819.0
-190.21745 142.9391 1809.0
-180.02719 142.9391 1809.0
-187.58116 157.87305 1998.0
-176.32632 157.87305 1998.0
-165.07141 157.87305 1998.0
-154.6634 158.7422 2009.0
-142.56166 157.87305 1998.0
-131.30682 157.87305 1998.0
-120.71293 158.7422 2009.0
-109.39604 158.7422 2009.0
-98.07924 158.7422 2009.0
-86.76236 158.7422 2009.0
-75.8962 159.6904 2021.0
-64.5118 159.6904 2021.0
-53.127327 159.6904 2021.0
-41.742928 159.6904 2021.0
-30.358452 159.6904 2021.0
-18.97405 159.6904 2021.0
-7.589649 159.6904 2021.0
3.7722206 158.7422 2009.0
15.0891695 158.7422 2009.0
26.405973 158.7422 2009.0
37.72278 158.7422 2009.0
49.3325 159.6904 2021.0
60.716904 159.6904 2021.0
72.10145 159.6904 2021.0
83.485855 159.6904 2021.0
94.306946 158.7422 2009.0
106.254654 159.6904 2021.0
117.63905 159.6904 2021.0
129.0236 159.6904 2021.0
140.408 159.6904 2021.0
151.7924 159.6904 2021.0
163.17682 159.6904 2021.0
174.5612 159.6904 2021.0
185.94576 159.6904 2021.0
197.33015 159.6904 2021.0
208.71455 159.6904 2021.0
220.09897 159.6904 2021.0
231.48335 159.6904 2021.0
242.86792 159.6904 2021.0
255.76198 160.63858 2033.0
268.79123 161.58678 2045.0
278.666 160.63858 2033.0
290.11798 160.63858 2033.0
301.5701 160.63858 2033.0
313.02213 160.63858 2033.0
324.47412 160.63858 2033.0
335.92612 160.63858 2033.0
347.3781 160.63858 2033.0
358.83026 160.63858 2033.0
372.4679 161.58678 2045.0
383.9875 161.58678 2045.0
395.50705 161.58678 2045.0
409.4151 162.53496 2057.0
421.0024 162.53496 2057.0
432.58963 162.53496 2057.0
444.17682 162.53496 2057.0
453.1052 161.58678 2045.0
464.62476 161.58678 2045.0
478.9385 162.53496 2057.0
490.52573 162.53496 2057.0
502.1129 162.53496 2057.0
516.6969 163.48314 2069.0
528.3517 163.48314 2069.0
536.87463 162.53496 2057.0
548.46185 162.53496 2057.0
556.78186 161.58678 2045.0
568.30145 161.58678 2045.0
579.821 161.58678 2045.0
594.8107 162.53496 2057.0
606.39795 162.53496 2057.0
621.5903 163.48314 2069.0
629.5723 162.53496 2057.0
644.8999 163.48314 2069.0
656.55475 163.48314 2069.0
668.2096 163.48314 2069.0
679.8644 163.48314 2069.0
691.51917 163.48314 2069.0
707.5921 164.51035 2082.0
719.3204 164.51035 2082.0
731.04834 164.51035 2082.0
742.77637 164.51035 2082.0
754.50433 164.51035 2082.0
766.23236 164.51035 2082.0
782.8182 165.53755 2095.0
794.6194 165.53755 2095.0
806.42065 165.53755 2095.0
818.2219 165.53755 2095.0
830.02313 165.53755 2095.0
846.6465 166.48573 2107.0
858.5153 166.48573 2107.0
870.38416 166.48573 2107.0
882.2529 166.48573 2107.0
889.0295 165.53755 2095.0
900.83093 165.53755 2095.0
917.8597 166.48573 2107.0
929.7285 166.48573 2107.0
941.59735 166.48573 2107.0
953.4662 166.48573 2107.0
965.3352 166.48573 2107.0
977.20404 166.48573 2107.0
989.0729 166.48573 2107.0
1000.9417 166.48573 2107.0
1012.81055 166.48573 2107.0
1031.0017 167.51294 2120.0
1042.9437 167.51294 2120.0
1048.4172 166.48573 2107.0
1060.2861 166.48573 2107.0
1072.1549 166.48573 2107.0
1084.0239 166.48573 2107.0
1095.8928 166.48573 2107.0
1101.4526 165.53755 2095.0
1113.2539 165.53755 2095.0
1125.055 165.53755 2095.0
1136.8564 165.53755 2095.0
1155.2372 166.48573 2107.0
1160.459 165.53755 2095.0
1172.2603 165.53755 2095.0
1190.8436 166.48573 2107.0
1202.7126 166.48573 2107.0
1222.0753 167.51294 2120.0
1234.0175 167.51294 2120.0
1245.9596 167.51294 2120.0
1257.9016 167.51294 2120.0
1269.8438 167.51294 2120.0
-1139.8926 143.22131 1952.0
-1135.8368 144.10178 1964.0
-1131.0731 144.90886 1975.0
-1119.9479 144.90886 1975.0
-1064.3213 144.90886 1975.0
-1053.1959 144.90886 1975.0
-1029.9352 143.22131 1952.0
-1025.2034 144.10178 1964.0
-1014.14 144.10178 1964.0
-996.94794 143.22131 1952.0
-985.95215 143.22131 1952.0
-974.95636 143.22131 1952.0
-835.31635 145.71594 1986.0
-824.12915 145.71594 1986.0
-808.43915 144.90886 1975.0
-801.7546 145.71594 1986.0
-790.5674 145.71594 1986.0
-779.38 145.71594 1986.0
-763.9379 144.90886 1975.0
-752.8126 144.90886 1975.0
-745.81824 145.71594 1986.0
-730.562 144.90886 1975.0
-723.44366 145.71594 1986.0
-712.2564 145.71594 1986.0
-701.0691 145.71594 1986.0
-689.88184 145.71594 1986.0
-682.7955 146.5964 1998.0
-554.2038 123.04413 1677.0
-544.7571 123.04413 1677.0
-535.3105 123.04413 1677.0
-528.686 123.704475 1686.0
-519.1886 123.704475 1686.0
-512.10974 124.29145 1694.0
-502.5673 124.29145 1694.0
-493.0249 124.29145 1694.0
-483.48248 124.29145 1694.0
-476.17825 124.87842 1702.0
-466.59082 124.87842 1702.0
-461.56796 126.12574 1719.0
-447.41583 124.87842 1702.0
-437.82834 124.87842 1702.0
-428.24084 124.87842 1702.0
-422.835 126.12574 1719.0
-413.15173 126.12574 1719.0
-403.4685 126.12574 1719.0
-395.847 126.78609 1728.0
-386.113 126.78609 1728.0
-376.3791 126.78609 1728.0
-368.34256 127.373055 1736.0
-358.56357 127.373055 1736.0
-350.5928 128.03339 1745.0
-340.76306 128.03339 1745.0
-332.6402 128.69374 1754.0
-322.75977 128.69374 1754.0
-312.87936 128.69374 1754.0
-302.99902 128.69374 1754.0
-296.12662 130.01443 1772.0
-286.14484 130.01443 1772.0
-277.56564 130.67477 1781.0
-266.18124 130.01443 1772.0
-257.5007 130.67477 1781.0
-248.71872 131.33511 1790.0
-238.63556 131.33511 1790.0
-228.55234 131.33511 1790.0
-218.46916 131.33511 1790.0
-209.55016 132.06883 1800.0
-199.4106 132.06883 1800.0
-188.2196 131.33511 1790.0
-186.45456 145.71594 1986.0
-176.32632 146.5964 1998.0
-165.07141 146.5964 1998.0
-154.6634 147.4035 2009.0
-143.34653 147.4035 2009.0
-132.02972 147.4035 2009.0
-120.71293 147.4035 2009.0
-109.39604 147.4035 2009.0
-98.07924 147.4035 2009.0
-86.76236 147.4035 2009.0
-75.8962 148.28395 2021.0
-64.5118 148.28395 2021.0
-52.811874 147.4035 2009.0
-41.495075 147.4035 2009.0
-30.358452 148.28395 2021.0
-18.97405 148.28395 2021.0
-7.589649 148.28395 2021.0
3.7722206 147.4035 2009.0
15.0891695 147.4035 2009.0
26.405973 147.4035 2009.0
37.72278 147.4035 2009.0
49.3325 148.28395 2021.0
60.716904 148.28395 2021.0
72.10145 148.28395 2021.0
83.485855 148.28395 2021.0
94.306946 147.4035 2009.0
106.254654 148.28395 2021.0
117.63905 148.28395 2021.0
129.0236 148.28395 2021.0
140.408 148.28395 2021.0
151.7924 148.28395 2021.0
163.17682 148.28395 2021.0
174.5612 148.28395 2021.0
185.94576 148.28395 2021.0
198.50183 149.16441 2033.0
208.71455 148.28395 2021.0
220.09897 148.28395 2021.0
231.48335 148.28395 2021.0
244.30998 149.16441 2033.0
255.76198 149.16441 2033.0
267.21396 149.16441 2033.0
280.31082 150.04488 2045.0
290.11798 149.16441 2033.0
301.5701 149.16441 2033.0
314.86975 150.04488 2045.0
326.38934 150.04488 2045.0
335.92612 149.16441 2033.0
345.3277 148.28395 2021.0
356.7122 148.28395 2021.0
372.4679 150.04488 2045.0
383.9875 150.04488 2045.0
395.50705 150.04488 2045.0
407.02664 150.04488 2045.0
421.0024 150.92532 2057.0
432.58963 150.92532 2057.0
444.17682 150.92532 2057.0
453.1052 150.04488 2045.0
461.89838 149.16441 2033.0
476.14453 150.04488 2045.0
490.52573 150.92532 2057.0
502.1129 150.92532 2057.0
513.7001 150.92532 2057.0
525.2873 150.92532 2057.0
536.87463 150.92532 2057.0
545.26227 150.04488 2045.0
556.78186 150.04488 2045.0
568.30145 150.04488 2045.0
579.821 150.04488 2045.0
594.8107 150.92532 2057.0
606.39795 150.92532 2057.0
617.9851 150.92532 2057.0
629.5723 150.92532 2057.0
644.8999 151.80579 2069.0
656.55475 151.80579 2069.0
668.2096 151.80579 2069.0
679.8644 151.80579 2069.0
691.51917 151.80579 2069.0
707.5921 152.75961 2082.0
719.3204 152.75961 2082.0
731.04834 152.75961 2082.0
742.77637 152.75961 2082.0
759.2155 153.71346 2095.0
771.0167 153.71346 2095.0
782.8182 153.71346 2095.0
794.6194 153.71346 2095.0
806.42065 153.71346 2095.0
818.2219 153.71346 2095.0
830.02313 153.71346 2095.0
846.6465 154.5939 2107.0
858.5153 154.5939 2107.0
870.38416 154.5939 2107.0
882.2529 154.5939 2107.0
894.12177 154.5939 2107.0
905.99084 154.5939 2107.0
917.8597 154.5939 2107.0
929.7285 154.5939 2107.0
941.59735 154.5939 2107.0
953.4662 154.5939 2107.0
959.83734 153.71346 2095.0
977.20404 154.5939 2107.0
989.0729 154.5939 2107.0
1000.9417 154.5939 2107.0
1012.81055 154.5939 2107.0
1024.6796 154.5939 2107.0
1036.5485 154.5939 2107.0
1048.4172 154.5939 2107.0
1060.2861 154.5939 2107.0
1072.1549 154.5939 2107.0
1084.0239 154.5939 2107.0
1095.8928 154.5939 2107.0
1101.4526 153.71346 2095.0
1119.6305 154.5939 2107.0
1125.055 153.71346 2095.0
1136.8564 153.71346 2095.0
1148.6577 153.71346 2095.0
1160.459 153.71346 2095.0
1178.9749 154.5939 2107.0
1198.191 155.54774 2120.0
1210.1333 155.54774 2120.0
1229.5692 156.50157 2133.0
1226.4503 154.5939 2107.0
1245.9596 155.54774 2120.0
1250.188 154.5939 2107.0
1269.8438 155.54774 2120.0
-1139.8926 132.20425 1952.0
-1128.8969 132.20425 1952.0
-1124.7734 133.01698 1964.0
-1113.7102 133.01698 1964.0
-1069.4568 133.01698 1964.0
-1064.3213 133.76198 1975.0
-1053.1959 133.76198 1975.0
-1029.9352 132.20425 1952.0
-1025.2034 133.01698 1964.0
-1014.14 133.01698 1964.0
-996.94794 132.20425 1952.0
-985.95215 132.20425 1952.0
-846.5037 134.50699 1986.0
-830.68976 133.76198 1975.0
-819.56445 133.76198 1975.0
-808.43915 133.76198 1975.0
-801.7546 134.50699 1986.0
-790.5674 134.50699 1986.0
-779.38 134.50699 1986.0
-768.1928 134.50699 1986.0
-757.00543 134.50699 1986.0
-745.81824 134.50699 1986.0
-734.631 134.50699 1986.0
-723.44366 134.50699 1986.0
-712.2564 134.50699 1986.0
-701.0691 134.50699 1986.0
-689.88184 134.50699 1986.0
-563.6504 113.57916 1677.0
-551.56 113.03734 1669.0
-536.96094 111.953705 1653.0
-530.2031 112.49552 1661.0
-523.3552 113.03734 1669.0
-519.1886 114.18871 1686.0
-512.10974 114.73053 1694.0
-502.5673 114.73053 1694.0
-493.0249 114.73053 1694.0
-483.48248 114.73053 1694.0
-473.94006 114.73053 1694.0
-466.59082 115.272354 1702.0
-459.41986 115.881905 1711.0
-447.41583 115.272354 1702.0
-437.82834 115.272354 1702.0
-428.24084 115.272354 1702.0
-420.8672 115.881905 1711.0
-411.22897 115.881905 1711.0
-403.4685 116.42371 1719.0
-393.78528 116.42371 1719.0
-386.113 117.033264 1728.0
-376.3791 117.033264 1728.0
-366.6451 117.033264 1728.0
-358.56357 117.57509 1736.0
-350.5928 118.18465 1745.0
-340.76306 118.18465 1745.0
-332.6402 118.79418 1754.0
-322.75977 118.79418 1754.0
-312.87936 118.79418 1754.0
-302.99902 118.79418 1754.0
-296.12662 120.01328 1772.0
-286.14484 120.01328 1772.0
-276.16302 120.01328 1772.0
-266.18124 120.01328 1772.0
-256.19946 120.01328 1772.0
-247.46819 120.62283 1781.0
-237.43571 120.62283 1781.0
-228.55234 121.23238 1790.0
-218.46916 121.23238 1790.0
-209.55016 121.90966 1800.0
-199.4106 121.90966 1800.0
-188.2196 121.23238 1790.0
-175.2673 134.50699 1986.0
-164.08 134.50699 1986.0
-153.81657 135.31972 1998.0
-142.56166 135.31972 1998.0
-131.30682 135.31972 1998.0
-120.71293 136.06471 2009.0
-108.797066 135.31972 1998.0
-98.07924 136.06471 2009.0
-86.76236 136.06471 2009.0
-75.44556 136.06471 2009.0
-64.12875 136.06471 2009.0
-52.811874 136.06471 2009.0
-41.495075 136.06471 2009.0
-30.358452 136.87746 2021.0
-18.97405 136.87746 2021.0
-7.589649 136.87746 2021.0
3.7722206 136.06471 2009.0
15.0891695 136.06471 2009.0
26.405973 136.06471 2009.0
37.72278 136.06471 2009.0
49.039585 136.06471 2009.0
60.716904 136.87746 2021.0
72.10145 136.87746 2021.0
83.485855 136.87746 2021.0
94.306946 136.06471 2009.0
105.62375 136.06471 2009.0
116.94056 136.06471 2009.0
129.0236 136.87746 2021.0
140.408 136.87746 2021.0
151.7924 136.87746 2021.0
163.17682 136.87746 2021.0
174.5612 136.87746 2021.0
185.94576 136.87746 2021.0
197.33015 136.87746 2021.0
209.95384 137.69019 2033.0
221.40584 137.69019 2033.0
232.85783 137.69019 2033.0
244.30998 137.69019 2033.0
