ply
format ascii 1.0
element vertex 1725
property float x
property float y
property float z
end_header
-64.393486 372.21957 1319.0
-56.74751 370.8086 1314.0
-49.157906 369.3976 1309.0
-41.624638 367.9866 1304.0
-34.147648 366.57562 1299.0
-26.830313 366.57562 1299.0
-19.362713 363.75363 1289.0
-12.054766 362.34265 1284.0
9.501144 356.98087 1265.0
16.692677 358.39188 1270.0
29.072247 336.0982 1191.0
35.661045 334.96942 1187.0
42.49027 336.0982 1191.0
73.63355 356.98087 1265.0
81.07867 358.39188 1270.0
90.2474 366.57562 1299.0
98.31581 369.3976 1309.0
105.68948 369.3976 1309.0
109.26271 356.98087 1265.0
117.30868 359.80286 1275.0
124.49082 359.80286 1275.0
133.11879 363.75363 1289.0
140.37979 363.75363 1289.0
148.2135 365.16464 1294.0
157.30533 369.3976 1309.0
164.679 369.3976 1309.0
172.05267 369.3976 1309.0
180.11171 370.8086 1314.0
188.94058 373.63058 1324.0
195.65714 372.21957 1319.0
203.857 373.63058 1324.0
211.31516 373.63058 1324.0
220.42569 376.45255 1334.0
230.6741 380.96774 1350.0
239.16133 382.37872 1355.0
245.88344 380.96774 1350.0
254.42691 382.37872 1355.0
331.97177 457.72568 1622.0
342.79102 459.98328 1630.0
351.97287 459.98328 1630.0
361.15472 459.98328 1630.0
370.33664 459.98328 1630.0
379.51862 459.98328 1630.0
388.7005 459.98328 1630.0
397.8824 459.98328 1630.0
407.06424 459.98328 1630.0
416.24615 459.98328 1630.0
427.5161 462.24084 1638.0
436.74307 462.24084 1638.0
445.97 462.24084 1638.0
452.97375 459.98328 1630.0
464.42386 462.24084 1638.0
473.65097 462.24084 1638.0
482.8779 462.24084 1638.0
492.10483 462.24084 1638.0
501.33176 462.24084 1638.0
510.5587 462.24084 1638.0
519.78577 462.24084 1638.0
529.0127 462.24084 1638.0
538.2397 462.24084 1638.0
547.4666 462.24084 1638.0
556.69354 462.24084 1638.0
563.1566 459.98328 1630.0
575.1475 462.24084 1638.0
584.3745 462.24084 1638.0
593.60144 462.24084 1638.0
602.82837 462.24084 1638.0
612.0554 462.24084 1638.0
621.28235 462.24084 1638.0
630.50934 462.24084 1638.0
639.73627 462.24084 1638.0
648.9632 462.24084 1638.0
658.19025 462.24084 1638.0
667.4172 462.24084 1638.0
673.3394 459.98328 1630.0
567.37195 382.37872 1355.0
568.2151 377.86356 1339.0
573.60785 376.45255 1334.0
578.9442 375.04156 1329.0
586.43054 375.04156 1329.0
593.9169 375.04156 1329.0
601.4032 375.04156 1329.0
608.88965 375.04156 1329.0
618.6949 376.45255 1334.0
626.2094 376.45255 1334.0
633.7239 376.45255 1334.0
638.83496 375.04156 1329.0
646.32135 375.04156 1329.0
656.26746 376.45255 1334.0
663.782 376.45255 1334.0
671.29645 376.45255 1334.0
678.811 376.45255 1334.0
686.32556 376.45255 1334.0
693.84 376.45255 1334.0
701.35455 376.45255 1334.0
708.869 376.45255 1334.0
716.38354 376.45255 1334.0
723.8981 376.45255 1334.0
731.4126 376.45255 1334.0
738.9271 376.45255 1334.0
743.64386 375.04156 1329.0
753.9561 376.45255 1334.0
761.47064 376.45255 1334.0
771.86743 377.86356 1339.0
779.4101 377.86356 1339.0
786.95276 377.86356 1339.0
791.5286 376.45255 1334.0
799.0432 376.45255 1334.0
-810.1328 448.57117 1622.0
-800.996 448.57117 1622.0
-791.85913 448.57117 1622.0
-779.34436 446.63528 1615.0
-773.5855 448.57117 1622.0
-764.4486 448.57117 1622.0
-755.31177 448.57117 1622.0
-746.175 448.57117 1622.0
-740.67334 450.7836 1630.0
-731.49146 450.7836 1630.0
-722.3096 450.7836 1630.0
-713.1276 450.7836 1630.0
-703.94574 450.7836 1630.0
-691.354 448.57117 1622.0
-682.21716 448.57117 1622.0
-673.08026 448.57117 1622.0
-663.9434 448.57117 1622.0
-654.80664 448.57117 1622.0
-648.8543 450.7836 1630.0
-636.53296 448.57117 1622.0
-627.39606 448.57117 1622.0
-618.2592 448.57117 1622.0
-612.1267 450.7836 1630.0
-602.9449 450.7836 1630.0
-593.76294 450.7836 1630.0
-581.7119 448.57117 1622.0
-572.5751 448.57117 1622.0
-563.43823 448.57117 1622.0
-554.3014 448.57117 1622.0
-545.16455 448.57117 1622.0
-536.0278 448.57117 1622.0
-529.48956 450.7836 1630.0
-520.30774 450.7836 1630.0
-511.12585 450.7836 1630.0
-501.9439 450.7836 1630.0
-492.76202 450.7836 1630.0
-481.20673 448.57117 1622.0
-472.0699 448.57117 1622.0
-460.9352 446.63528 1615.0
-453.79617 448.57117 1622.0
-444.6594 448.57117 1622.0
-435.52252 448.57117 1622.0
-426.3857 448.57117 1622.0
-417.24887 448.57117 1622.0
-408.112 448.57117 1622.0
-398.97522 448.57117 1622.0
-388.1559 446.63528 1615.0
-380.7015 448.57117 1622.0
-371.5647 448.57117 1622.0
-362.42783 448.57117 1622.0
-351.76633 446.63528 1615.0
-344.15417 448.57117 1622.0
-335.01733 448.57117 1622.0
-324.47415 446.63528 1615.0
-315.3767 446.63528 1615.0
-306.27933 446.63528 1615.0
-297.1819 446.63528 1615.0
-288.0845 446.63528 1615.0
-278.9871 446.63528 1615.0
-269.88965 446.63528 1615.0
-260.7923 446.63528 1615.0
-251.69485 446.63528 1615.0
-242.59747 446.63528 1615.0
-233.50008 446.63528 1615.0
-224.40263 446.63528 1615.0
-216.23846 448.57117 1622.0
-207.1016 448.57117 1622.0
-197.96478 448.57117 1622.0
-188.82797 448.57117 1622.0
-179.69112 448.57117 1622.0
-170.55429 448.57117 1622.0
-161.41742 448.57117 1622.0
-152.28061 448.57117 1622.0
-143.1438 448.57117 1622.0
-113.26972 379.156 1371.0
-105.93173 380.5388 1376.0
-98.1806 380.5388 1376.0
-89.77233 377.77325 1366.0
-81.71706 376.11392 1360.0
-73.78379 374.73114 1355.0
-65.36989 370.30627 1339.0
-57.395313 367.54074 1329.0
-49.533447 364.7752 1319.0
-41.78424 362.00964 1309.0
-34.279087 360.6269 1304.0
-26.933586 360.6269 1304.0
-19.663143 362.00964 1309.0
-12.336419 363.39243 1314.0
-4.9345865 363.39243 1314.0
2.4766343 364.7752 1319.0
9.906727 364.7752 1319.0
17.271006 363.39243 1314.0
24.672838 363.39243 1314.0
28.974607 328.27005 1187.0
35.78121 329.37622 1191.0
42.49027 329.37622 1191.0
69.3468 364.7752 1319.0
77.649925 368.92352 1334.0
85.16452 368.92352 1334.0
91.28951 363.39243 1314.0
99.066895 364.7752 1319.0
106.496895 364.7752 1319.0
114.79063 367.54074 1329.0
121.81702 366.15796 1324.0
128.29877 363.39243 1314.0
134.15152 359.2441 1299.0
140.92433 357.86133 1294.0
148.7862 359.2441 1299.0
157.90619 363.39243 1314.0
165.30803 363.39243 1314.0
172.05267 362.00964 1309.0
179.42635 362.00964 1309.0
188.94058 366.15796 1324.0
197.14052 367.54074 1329.0
204.62685 367.54074 1329.0
212.9112 368.92352 1334.0
221.25188 370.30627 1339.0
230.6741 373.3484 1350.0
239.16133 374.73114 1355.0
246.79411 374.73114 1355.0
254.42691 374.73114 1355.0
333.6091 450.7836 1630.0
342.79102 450.7836 1630.0
350.2454 448.57117 1622.0
361.15472 450.7836 1630.0
370.33664 450.7836 1630.0
379.51862 450.7836 1630.0
388.7005 450.7836 1630.0
397.8824 450.7836 1630.0
407.06424 450.7836 1630.0
418.28903 452.99603 1638.0
427.5161 452.99603 1638.0
436.74307 452.99603 1638.0
445.97 452.99603 1638.0
452.97375 450.7836 1630.0
464.42386 452.99603 1638.0
473.65097 452.99603 1638.0
482.8779 452.99603 1638.0
492.10483 452.99603 1638.0
501.33176 452.99603 1638.0
510.5587 452.99603 1638.0
519.78577 452.99603 1638.0
529.0127 452.99603 1638.0
540.5398 454.93192 1645.0
547.4666 452.99603 1638.0
556.69354 452.99603 1638.0
563.1566 450.7836 1630.0
575.1475 452.99603 1638.0
584.3745 452.99603 1638.0
593.60144 452.99603 1638.0
602.82837 452.99603 1638.0
609.06616 450.7836 1630.0
621.28235 452.99603 1638.0
630.50934 452.99603 1638.0
639.73627 452.99603 1638.0
648.9632 452.99603 1638.0
658.19025 452.99603 1638.0
667.4172 452.99603 1638.0
676.64417 452.99603 1638.0
565.2783 373.3484 1350.0
568.2151 370.30627 1339.0
573.60785 368.92352 1334.0
578.9442 367.54074 1329.0
586.43054 367.54074 1329.0
593.9169 367.54074 1329.0
601.4032 367.54074 1329.0
608.88965 367.54074 1329.0
618.6949 368.92352 1334.0
626.2094 368.92352 1334.0
633.7239 368.92352 1334.0
638.83496 367.54074 1329.0
646.32135 367.54074 1329.0
653.8077 367.54074 1329.0
663.782 368.92352 1334.0
671.29645 368.92352 1334.0
678.811 368.92352 1334.0
686.32556 368.92352 1334.0
693.84 368.92352 1334.0
701.35455 368.92352 1334.0
708.869 368.92352 1334.0
716.38354 368.92352 1334.0
723.8981 368.92352 1334.0
731.4126 368.92352 1334.0
738.9271 368.92352 1334.0
746.4416 368.92352 1334.0
753.9561 368.92352 1334.0
764.32477 370.30627 1339.0
771.86743 370.30627 1339.0
779.4101 370.30627 1339.0
786.95276 370.30627 1339.0
791.5286 368.92352 1334.0
799.0432 368.92352 1334.0
-815.73395 437.5203 1615.0
-810.1328 439.41666 1622.0
-797.5392 437.5203 1615.0
-791.85913 439.41666 1622.0
-779.34436 437.5203 1615.0
-773.5855 439.41666 1622.0
-764.4486 439.41666 1622.0
-755.31177 439.41666 1622.0
-749.8552 441.58395 1630.0
-744.3086 443.75125 1638.0
-731.49146 441.58395 1630.0
-722.3096 441.58395 1630.0
-713.1276 441.58395 1630.0
-703.94574 441.58395 1630.0
-691.354 439.41666 1622.0
-682.21716 439.41666 1622.0
-673.08026 439.41666 1622.0
-663.9434 439.41666 1622.0
-658.03625 441.58395 1630.0
-648.8543 441.58395 1630.0
-636.53296 439.41666 1622.0
-627.39606 439.41666 1622.0
-618.2592 439.41666 1622.0
-609.12244 439.41666 1622.0
-599.9856 439.41666 1622.0
-590.84875 439.41666 1622.0
-581.7119 439.41666 1622.0
-572.5751 439.41666 1622.0
-566.2172 441.58395 1630.0
-557.03534 441.58395 1630.0
-545.16455 439.41666 1622.0
-536.0278 439.41666 1622.0
-529.48956 441.58395 1630.0
-517.7541 439.41666 1622.0
-508.61725 439.41666 1622.0
-499.48038 439.41666 1622.0
-492.76202 441.58395 1630.0
-481.20673 439.41666 1622.0
-472.0699 439.41666 1622.0
-460.9352 437.5203 1615.0
-453.79617 439.41666 1622.0
-444.6594 439.41666 1622.0
-433.64294 437.5203 1615.0
-426.3857 439.41666 1622.0
-417.24887 439.41666 1622.0
-408.112 439.41666 1622.0
-398.97522 439.41666 1622.0
-389.83835 439.41666 1622.0
-380.7015 439.41666 1622.0
-371.5647 439.41666 1622.0
-362.42783 439.41666 1622.0
-351.76633 437.5203 1615.0
-344.15417 439.41666 1622.0
-333.5715 437.5203 1615.0
-324.47415 437.5203 1615.0
-315.3767 437.5203 1615.0
-306.27933 437.5203 1615.0
-298.46997 439.41666 1622.0
-289.33316 439.41666 1622.0
-280.19635 439.41666 1622.0
-271.05948 439.41666 1622.0
-261.92264 439.41666 1622.0
-252.78578 439.41666 1622.0
-243.64897 439.41666 1622.0
-234.51216 439.41666 1622.0
-224.40263 437.5203 1615.0
-216.23846 439.41666 1622.0
-207.1016 439.41666 1622.0
-197.96478 439.41666 1622.0
-188.82797 439.41666 1622.0
-179.69112 439.41666 1622.0
-170.55429 439.41666 1622.0
-162.21356 441.58395 1630.0
-153.03168 441.58395 1630.0
-143.84981 441.58395 1630.0
-113.682816 372.7727 1376.0
-105.54681 371.41815 1371.0
-97.82384 371.41815 1371.0
-89.37801 368.43814 1360.0
-81.71706 368.43814 1360.0
-74.05606 368.43814 1360.0
-65.906906 365.72906 1350.0
-57.82718 362.74902 1339.0
-50.096752 361.39447 1334.0
-42.58226 361.39447 1334.0
-35.06772 361.39447 1334.0
-27.656496 362.74902 1339.0
-20.038681 361.39447 1334.0
-12.571131 362.74902 1339.0
-5.0096946 361.39447 1334.0
2.4954112 360.03992 1329.0
9.981835 360.03992 1329.0
17.468163 360.03992 1329.0
24.95449 360.03992 1329.0
29.169888 323.7379 1195.0
35.901386 323.7379 1195.0
42.63297 323.7379 1195.0
49.736256 326.17612 1204.0
69.87256 360.03992 1329.0
77.94097 362.74902 1339.0
85.48373 362.74902 1339.0
92.67901 361.39447 1334.0
99.81796 360.03992 1329.0
107.3043 360.03992 1329.0
114.35876 358.68536 1324.0
122.27705 360.03992 1329.0
130.73978 362.74902 1339.0
140.45117 368.43814 1360.0
148.11212 368.43814 1360.0
153.94046 364.10358 1344.0
160.91049 362.74902 1339.0
167.82413 361.39447 1334.0
175.33864 361.39447 1334.0
181.48242 358.68536 1324.0
189.65411 360.03992 1329.0
197.8822 361.39447 1334.0
205.3967 361.39447 1334.0
212.9112 361.39447 1334.0
222.07806 364.10358 1344.0
231.52846 367.08362 1355.0
239.16133 367.08362 1355.0
246.79411 367.08362 1355.0
253.48807 365.72906 1350.0
333.6091 441.58395 1630.0
341.10858 439.41666 1622.0
351.97287 441.58395 1630.0
361.15472 441.58395 1630.0
370.33664 441.58395 1630.0
379.51862 441.58395 1630.0
388.7005 441.58395 1630.0
397.8824 441.58395 1630.0
407.06424 441.58395 1630.0
418.28903 443.75125 1638.0
427.5161 443.75125 1638.0
436.74307 443.75125 1638.0
445.97 443.75125 1638.0
452.97375 441.58395 1630.0
464.42386 443.75125 1638.0
473.65097 443.75125 1638.0
482.8779 443.75125 1638.0
492.10483 443.75125 1638.0
501.33176 443.75125 1638.0
510.5587 443.75125 1638.0
519.78577 443.75125 1638.0
529.0127 443.75125 1638.0
538.2397 443.75125 1638.0
547.4666 443.75125 1638.0
556.69354 443.75125 1638.0
565.9206 443.75125 1638.0
575.1475 443.75125 1638.0
584.3745 443.75125 1638.0
593.60144 443.75125 1638.0
602.82837 443.75125 1638.0
612.0554 443.75125 1638.0
621.28235 443.75125 1638.0
630.50934 443.75125 1638.0
636.6118 441.58395 1630.0
648.9632 443.75125 1638.0
658.19025 443.75125 1638.0
667.4172 443.75125 1638.0
676.64417 443.75125 1638.0
685.8711 443.75125 1638.0
566.09326 361.39447 1334.0
571.4579 360.03992 1329.0
578.9442 360.03992 1329.0
586.43054 360.03992 1329.0
593.9169 360.03992 1329.0
603.66583 361.39447 1334.0
608.88965 360.03992 1329.0
616.376 360.03992 1329.0
623.8623 360.03992 1329.0
631.34863 360.03992 1329.0
641.2384 361.39447 1334.0
646.32135 360.03992 1329.0
653.8077 360.03992 1329.0
661.294 360.03992 1329.0
668.78033 360.03992 1329.0
678.811 361.39447 1334.0
686.32556 361.39447 1334.0
693.84 361.39447 1334.0
701.35455 361.39447 1334.0
708.869 361.39447 1334.0
716.38354 361.39447 1334.0
723.8981 361.39447 1334.0
731.4126 361.39447 1334.0
738.9271 361.39447 1334.0
746.4416 361.39447 1334.0
756.78204 362.74902 1339.0
767.17883 364.10358 1344.0
774.7497 364.10358 1344.0
779.4101 362.74902 1339.0
786.95276 362.74902 1339.0
791.5286 361.39447 1334.0
802.03815 362.74902 1339.0
-824.83136 428.40524 1615.0
-815.73395 428.40524 1615.0
-810.1328 430.26212 1622.0
-800.996 430.26212 1622.0
-795.7648 432.38425 1630.0
-782.72235 430.26212 1622.0
-773.5855 430.26212 1622.0
-761.14954 428.40524 1615.0
-752.0521 428.40524 1615.0
-746.175 430.26212 1622.0
-740.67334 432.38425 1630.0
-731.49146 432.38425 1630.0
-722.3096 432.38425 1630.0
-713.1276 432.38425 1630.0
-700.4908 430.26212 1622.0
-694.76385 432.38425 1630.0
-685.5819 432.38425 1630.0
-676.4 432.38425 1630.0
-663.9434 430.26212 1622.0
-658.03625 432.38425 1630.0
-648.8543 432.38425 1630.0
-639.6724 432.38425 1630.0
-627.39606 430.26212 1622.0
-618.2592 430.26212 1622.0
-609.12244 430.26212 1622.0
-602.9449 432.38425 1630.0
-593.76294 432.38425 1630.0
-584.58105 432.38425 1630.0
-572.5751 430.26212 1622.0
-566.2172 432.38425 1630.0
-557.03534 432.38425 1630.0
-545.16455 430.26212 1622.0
-536.0278 430.26212 1622.0
-529.48956 432.38425 1630.0
-520.30774 432.38425 1630.0
-508.61725 430.26212 1622.0
-497.3248 428.40524 1615.0
-492.76202 432.38425 1630.0
-483.58008 432.38425 1630.0
-474.39822 432.38425 1630.0
-460.9352 428.40524 1615.0
-451.83777 428.40524 1615.0
-442.7404 428.40524 1615.0
-433.64294 428.40524 1615.0
-424.54556 428.40524 1615.0
-417.24887 430.26212 1622.0
-408.112 430.26212 1622.0
-398.97522 430.26212 1622.0
-389.83835 430.26212 1622.0
-380.7015 430.26212 1622.0
-371.5647 430.26212 1622.0
-362.42783 430.26212 1622.0
-353.29102 430.26212 1622.0
-344.15417 430.26212 1622.0
-333.5715 428.40524 1615.0
-324.47415 428.40524 1615.0
-316.74365 430.26212 1622.0
-307.60684 430.26212 1622.0
-298.46997 430.26212 1622.0
-289.33316 430.26212 1622.0
-280.19635 430.26212 1622.0
-272.39636 432.38425 1630.0
-263.2145 432.38425 1630.0
-254.03258 432.38425 1630.0
-244.8507 432.38425 1630.0
-235.66881 432.38425 1630.0
-226.48688 432.38425 1630.0
-216.23846 430.26212 1622.0
-206.20782 428.40524 1615.0
-197.96478 430.26212 1622.0
-189.75931 432.38425 1630.0
-180.57736 432.38425 1630.0
-171.39551 432.38425 1630.0
-162.21356 432.38425 1630.0
-152.28061 430.26212 1622.0
-144.55582 434.50638 1638.0
-114.67424 368.18976 1388.0
-106.85555 368.18976 1388.0
-97.82384 363.68024 1371.0
-89.77233 362.3539 1366.0
-82.077576 362.3539 1366.0
-74.382774 362.3539 1366.0
-66.93213 363.68024 1371.0
-58.734104 360.7623 1360.0
-51.67401 365.0066 1376.0
-43.92293 365.0066 1376.0
-36.329525 366.59818 1382.0
-28.420717 365.0066 1376.0
-20.279026 358.10965 1350.0
-12.768288 360.7623 1360.0
-4.4726734 315.93228 1191.0
2.253193 318.3197 1200.0
10.507589 371.10773 1399.0
17.599602 355.19174 1339.0
22.60738 319.38077 1204.0
29.169888 316.99338 1195.0
35.901386 316.99338 1195.0
42.811356 318.3197 1200.0
49.90149 320.4418 1208.0
63.372017 358.10965 1350.0
71.23952 359.43597 1355.0
78.87231 359.43597 1355.0
86.50519 359.43597 1355.0
94.13798 359.43597 1355.0
101.77077 359.43597 1355.0
133.37605 362.3539 1366.0
141.0708 362.3539 1366.0
149.31007 363.68024 1371.0
157.6057 365.0066 1376.0
164.75601 363.68024 1371.0
170.46605 359.43597 1355.0
178.75603 360.7623 1360.0
190.25499 368.18976 1388.0
194.93416 362.3539 1366.0
202.62901 362.3539 1366.0
206.9364 356.51807 1344.0
213.70921 355.19174 1339.0
223.06947 358.10965 1350.0
278.5176 432.38425 1630.0
239.16133 359.43597 1355.0
246.79411 359.43597 1355.0
253.48807 358.10965 1350.0
331.97177 430.26212 1622.0
342.79102 432.38425 1630.0
351.97287 432.38425 1630.0
361.15472 432.38425 1630.0
368.519 430.26212 1622.0
379.51862 432.38425 1630.0
388.7005 432.38425 1630.0
397.8824 432.38425 1630.0
407.06424 432.38425 1630.0
416.24615 432.38425 1630.0
425.4281 432.38425 1630.0
436.74307 434.50638 1638.0
445.97 434.50638 1638.0
455.19693 434.50638 1638.0
464.42386 434.50638 1638.0
473.65097 434.50638 1638.0
480.51953 432.38425 1630.0
492.10483 434.50638 1638.0
501.33176 434.50638 1638.0
508.06516 432.38425 1630.0
519.78577 434.50638 1638.0
529.0127 434.50638 1638.0
538.2397 434.50638 1638.0
547.4666 434.50638 1638.0
556.69354 434.50638 1638.0
565.9206 434.50638 1638.0
575.1475 434.50638 1638.0
584.3745 434.50638 1638.0
593.60144 434.50638 1638.0
602.82837 434.50638 1638.0
612.0554 434.50638 1638.0
621.28235 434.50638 1638.0
630.50934 434.50638 1638.0
636.6118 432.38425 1630.0
645.79364 432.38425 1630.0
658.19025 434.50638 1638.0
670.2694 436.36325 1645.0
679.53577 436.36325 1645.0
688.8022 436.36325 1645.0
566.09326 353.8654 1334.0
571.4579 352.53906 1329.0
578.9442 352.53906 1329.0
586.43054 352.53906 1329.0
596.1513 353.8654 1334.0
603.66583 353.8654 1334.0
608.88965 352.53906 1329.0
616.376 352.53906 1329.0
623.8623 352.53906 1329.0
633.7239 353.8654 1334.0
641.2384 353.8654 1334.0
648.753 353.8654 1334.0
653.8077 352.53906 1329.0
661.294 352.53906 1329.0
668.78033 352.53906 1329.0
676.2667 352.53906 1329.0
686.32556 353.8654 1334.0
691.23944 352.53906 1329.0
698.72577 352.53906 1329.0
708.869 353.8654 1334.0
716.38354 353.8654 1334.0
723.8981 353.8654 1334.0
731.4126 353.8654 1334.0
738.9271 353.8654 1334.0
746.4416 353.8654 1334.0
753.9561 353.8654 1334.0
764.32477 355.19174 1339.0
771.86743 355.19174 1339.0
779.4101 355.19174 1339.0
786.95276 355.19174 1339.0
794.4954 355.19174 1339.0
805.0331 356.51807 1344.0
-824.83136 419.29025 1615.0
-815.73395 419.29025 1615.0
-810.1328 421.1076 1622.0
-804.94666 423.1846 1630.0
-791.85913 421.1076 1622.0
-786.5828 423.1846 1630.0
-773.5855 421.1076 1622.0
-764.4486 421.1076 1622.0
-755.31177 421.1076 1622.0
-749.8552 423.1846 1630.0
-737.0382 421.1076 1622.0
-727.9013 421.1076 1622.0
-722.3096 423.1846 1630.0
-713.1276 423.1846 1630.0
-700.4908 421.1076 1622.0
-694.76385 423.1846 1630.0
-685.5819 423.1846 1630.0
-676.4 423.1846 1630.0
-663.9434 421.1076 1622.0
-658.03625 423.1846 1630.0
-648.8543 423.1846 1630.0
-639.6724 423.1846 1630.0
-627.39606 421.1076 1622.0
-618.2592 421.1076 1622.0
-609.12244 421.1076 1622.0
-602.9449 423.1846 1630.0
-593.76294 423.1846 1630.0
-584.58105 423.1846 1630.0
-572.5751 421.1076 1622.0
-563.43823 421.1076 1622.0
-554.3014 421.1076 1622.0
-547.85345 423.1846 1630.0
-538.6715 423.1846 1630.0
-529.48956 423.1846 1630.0
-517.7541 421.1076 1622.0
-508.61725 421.1076 1622.0
-497.3248 419.29025 1615.0
-490.34357 421.1076 1622.0
-483.58008 423.1846 1630.0
-474.39822 423.1846 1630.0
-462.93304 421.1076 1622.0
-453.79617 421.1076 1622.0
-442.7404 419.29025 1615.0
-433.64294 419.29025 1615.0
-424.54556 419.29025 1615.0
-417.24887 421.1076 1622.0
-410.1249 423.1846 1630.0
-400.94302 423.1846 1630.0
-391.76108 423.1846 1630.0
-380.7015 421.1076 1622.0
-371.5647 421.1076 1622.0
-362.42783 421.1076 1622.0
-351.76633 419.29025 1615.0
-344.15417 421.1076 1622.0
-333.5715 419.29025 1615.0
-325.8805 421.1076 1622.0
-316.74365 421.1076 1622.0
-307.60684 421.1076 1622.0
-297.1819 419.29025 1615.0
-289.33316 421.1076 1622.0
-280.19635 421.1076 1622.0
-271.05948 421.1076 1622.0
-261.92264 421.1076 1622.0
-254.03258 423.1846 1630.0
-243.64897 421.1076 1622.0
-235.66881 423.1846 1630.0
-226.48688 423.1846 1630.0
-216.23846 421.1076 1622.0
-206.20782 419.29025 1615.0
-197.96478 421.1076 1622.0
-188.82797 421.1076 1622.0
-180.57736 423.1846 1630.0
-170.55429 421.1076 1622.0
-161.41742 421.1076 1622.0
-151.62341 419.29025 1615.0
-143.1438 421.1076 1622.0
-135.32881 425.26157 1638.0
-106.85555 360.35596 1388.0
-98.1806 357.2405 1376.0
-89.37801 353.08655 1360.0
-82.077576 354.6443 1366.0
-74.92731 357.2405 1376.0
-67.76206 360.35596 1388.0
-59.943336 360.35596 1388.0
-52.124657 360.35596 1388.0
-44.465584 361.65408 1393.0
-36.776413 363.21182 1399.0
-28.895771 363.21182 1399.0
-21.090187 364.50992 1404.0
-13.350371 369.1831 1422.0
-4.4726734 309.21036 1191.0
2.2438045 310.24884 1195.0
10.635273 367.6254 1416.0
18.532814 366.06766 1410.0
22.532272 311.54694 1200.0
29.291935 311.54694 1200.0
35.901386 310.24884 1195.0
42.63297 310.24884 1195.0
62.38623 345.03824 1329.0
72.3436 357.2405 1376.0
122.30513 367.6254 1416.0
130.28165 367.6254 1416.0
146.85408 369.1831 1422.0
154.21085 367.6254 1416.0
160.81277 364.50992 1404.0
168.72171 364.50992 1404.0
176.00146 363.21182 1399.0
183.88213 363.21182 1399.0
190.94034 361.65408 1393.0
240.60341 421.1076 1622.0
248.66241 419.29025 1615.0
258.87704 421.1076 1622.0
268.01385 421.1076 1622.0
278.5176 423.1846 1630.0
240.04384 353.08655 1360.0
247.7048 353.08655 1360.0
254.42691 351.78842 1355.0
342.79102 423.1846 1630.0
351.97287 423.1846 1630.0
361.15472 423.1846 1630.0
368.519 421.1076 1622.0
379.51862 423.1846 1630.0
388.7005 423.1846 1630.0
397.8824 423.1846 1630.0
407.06424 423.1846 1630.0
416.24615 423.1846 1630.0
425.4281 423.1846 1630.0
436.74307 425.26157 1638.0
443.79187 423.1846 1630.0
452.97375 423.1846 1630.0
462.15564 423.1846 1630.0
473.65097 425.26157 1638.0
482.8779 425.26157 1638.0
492.10483 425.26157 1638.0
501.33176 425.26157 1638.0
510.5587 425.26157 1638.0
519.78577 425.26157 1638.0
529.0127 425.26157 1638.0
538.2397 425.26157 1638.0
547.4666 425.26157 1638.0
556.69354 425.26157 1638.0
565.9206 425.26157 1638.0
575.1475 425.26157 1638.0
584.3745 425.26157 1638.0
593.60144 425.26157 1638.0
602.82837 425.26157 1638.0
612.0554 425.26157 1638.0
621.28235 425.26157 1638.0
630.50934 425.26157 1638.0
639.73627 425.26157 1638.0
648.9632 425.26157 1638.0
658.19025 425.26157 1638.0
667.4172 425.26157 1638.0
676.64417 425.26157 1638.0
685.8711 425.26157 1638.0
568.2151 347.63446 1339.0
573.60785 346.33636 1334.0
578.9442 345.03824 1329.0
588.63684 346.33636 1334.0
596.1513 346.33636 1334.0
603.66583 346.33636 1334.0
608.88965 345.03824 1329.0
616.376 345.03824 1329.0
623.8623 345.03824 1329.0
633.7239 346.33636 1334.0
638.83496 345.03824 1329.0
646.32135 345.03824 1329.0
653.8077 345.03824 1329.0
661.294 345.03824 1329.0
668.78033 345.03824 1329.0
676.2667 345.03824 1329.0
686.32556 346.33636 1334.0
693.84 346.33636 1334.0
701.35455 346.33636 1334.0
708.869 346.33636 1334.0
716.38354 346.33636 1334.0
723.8981 346.33636 1334.0
731.4126 346.33636 1334.0
738.9271 346.33636 1334.0
746.4416 346.33636 1334.0
753.9561 346.33636 1334.0
761.47064 346.33636 1334.0
768.98517 346.33636 1334.0
779.4101 347.63446 1339.0
786.95276 347.63446 1339.0
794.4954 347.63446 1339.0
802.03815 347.63446 1339.0
-833.9288 410.17526 1615.0
-828.40656 411.9531 1622.0
-819.26965 411.9531 1622.0
-814.12854 413.98492 1630.0
-804.94666 413.98492 1630.0
-791.85913 411.9531 1622.0
-782.72235 411.9531 1622.0
-770.24695 410.17526 1615.0
-764.4486 411.9531 1622.0
-755.31177 411.9531 1622.0
-746.175 411.9531 1622.0
-737.0382 411.9531 1622.0
-731.49146 413.98492 1630.0
-722.3096 413.98492 1630.0
-713.1276 413.98492 1630.0
-700.4908 411.9531 1622.0
-694.76385 413.98492 1630.0
-682.21716 411.9531 1622.0
-676.4 413.98492 1630.0
-663.9434 411.9531 1622.0
-658.03625 413.98492 1630.0
-648.8543 413.98492 1630.0
-636.53296 411.9531 1622.0
-624.6885 410.17526 1615.0
-618.2592 411.9531 1622.0
-612.1267 413.98492 1630.0
-602.9449 413.98492 1630.0
-593.76294 413.98492 1630.0
-584.58105 413.98492 1630.0
-570.104 410.17526 1615.0
-561.00665 410.17526 1615.0
-554.3014 411.9531 1622.0
-545.16455 411.9531 1622.0
-538.6715 413.98492 1630.0
-529.48956 413.98492 1630.0
-520.30774 413.98492 1630.0
-508.61725 411.9531 1622.0
-499.48038 411.9531 1622.0
-490.34357 411.9531 1622.0
-481.20673 411.9531 1622.0
-472.0699 411.9531 1622.0
-462.93304 411.9531 1622.0
-453.79617 411.9531 1622.0
-444.6594 411.9531 1622.0
-435.52252 411.9531 1622.0
-424.54556 410.17526 1615.0
-417.24887 411.9531 1622.0
-408.112 411.9531 1622.0
-398.97522 411.9531 1622.0
-391.76108 413.98492 1630.0
-380.7015 411.9531 1622.0
-371.5647 411.9531 1622.0
-360.86374 410.17526 1615.0
-353.29102 411.9531 1622.0
-344.15417 411.9531 1622.0
-335.01733 411.9531 1622.0
-325.8805 411.9531 1622.0
-316.74365 411.9531 1622.0
-307.60684 411.9531 1622.0
-298.46997 411.9531 1622.0
-289.33316 411.9531 1622.0
-280.19635 411.9531 1622.0
-271.05948 411.9531 1622.0
-261.92264 411.9531 1622.0
-252.78578 411.9531 1622.0
-243.64897 411.9531 1622.0
-235.66881 413.98492 1630.0
-226.48688 413.98492 1630.0
-217.30501 413.98492 1630.0
-207.1016 411.9531 1622.0
-197.96478 411.9531 1622.0
-188.82797 411.9531 1622.0
-180.57736 413.98492 1630.0
-170.55429 411.9531 1622.0
-161.41742 411.9531 1622.0
-152.28061 411.9531 1622.0
-143.84981 413.98492 1630.0
-114.17852 350.99826 1382.0
-106.85555 352.52216 1388.0
-98.60872 350.99826 1382.0
-105.150604 406.36557 1600.0
-97.03902 410.17526 1615.0
-88.32274 411.9531 1622.0
-79.576485 413.98492 1630.0
-70.74004 416.01675 1638.0
-61.212673 413.98492 1630.0
-51.77543 411.9531 1622.0
-42.244244 408.14343 1607.0
-32.882107 404.33374 1592.0
-24.0344 406.36557 1600.0
-13.406702 362.68127 1428.0
-5.340169 361.1574 1422.0
2.6812994 362.68127 1428.0
10.725402 362.68127 1428.0
18.769403 362.68127 1428.0
26.813404 362.68127 1428.0
29.072247 302.48837 1191.0
35.901386 303.5043 1195.0
42.49027 302.48837 1191.0
108.60555 367.2529 1446.0
117.2354 368.77676 1452.0
124.89634 367.2529 1446.0
130.28165 359.63354 1416.0
147.47372 362.68127 1428.0
155.51772 362.68127 1428.0
162.8745 361.1574 1422.0
170.88478 361.1574 1422.0
178.14017 359.63354 1416.0
213.19286 411.9531 1622.0
222.32967 411.9531 1622.0
230.46754 410.17526 1615.0
240.60341 411.9531 1622.0
249.74022 411.9531 1622.0
258.87704 411.9531 1622.0
268.01385 411.9531 1622.0
277.15067 411.9531 1622.0
287.69962 413.98492 1630.0
248.79762 346.9346 1366.0
255.36575 345.41074 1360.0
333.6091 413.98492 1630.0
342.79102 413.98492 1630.0
351.97287 413.98492 1630.0
361.15472 413.98492 1630.0
370.33664 413.98492 1630.0
377.65594 411.9531 1622.0
388.7005 413.98492 1630.0
397.8824 413.98492 1630.0
409.0621 416.01675 1638.0
416.24615 413.98492 1630.0
425.4281 413.98492 1630.0
436.74307 416.01675 1638.0
445.97 416.01675 1638.0
455.19693 416.01675 1638.0
462.15564 413.98492 1630.0
471.33762 413.98492 1630.0
480.51953 413.98492 1630.0
492.10483 416.01675 1638.0
501.33176 416.01675 1638.0
510.5587 416.01675 1638.0
522.0071 417.79462 1645.0
531.27344 417.79462 1645.0
540.5398 417.79462 1645.0
547.4666 416.01675 1638.0
556.69354 416.01675 1638.0
565.9206 416.01675 1638.0
575.1475 416.01675 1638.0
584.3745 416.01675 1638.0
590.7023 413.98492 1630.0
602.82837 416.01675 1638.0
612.0554 416.01675 1638.0
621.28235 416.01675 1638.0
630.50934 416.01675 1638.0
639.73627 416.01675 1638.0
648.9632 416.01675 1638.0
661.00305 417.79462 1645.0
667.4172 416.01675 1638.0
676.64417 416.01675 1638.0
565.2783 342.87097 1350.0
570.33685 341.34708 1344.0
573.60785 338.8073 1334.0
581.1223 338.8073 1334.0
588.63684 338.8073 1334.0
596.1513 338.8073 1334.0
603.66583 338.8073 1334.0
611.1804 338.8073 1334.0
618.6949 338.8073 1334.0
623.8623 337.5374 1329.0
633.7239 338.8073 1334.0
638.83496 337.5374 1329.0
646.32135 337.5374 1329.0
653.8077 337.5374 1329.0
661.294 337.5374 1329.0
668.78033 337.5374 1329.0
676.2667 337.5374 1329.0
686.32556 338.8073 1334.0
693.84 338.8073 1334.0
701.35455 338.8073 1334.0
708.869 338.8073 1334.0
716.38354 338.8073 1334.0
723.8981 338.8073 1334.0
731.4126 338.8073 1334.0
738.9271 338.8073 1334.0
746.4416 338.8073 1334.0
753.9561 338.8073 1334.0
761.47064 338.8073 1334.0
768.98517 338.8073 1334.0
776.49963 338.8073 1334.0
786.95276 340.0772 1339.0
794.4954 340.0772 1339.0
799.0432 338.8073 1334.0
-833.9288 401.06024 1615.0
-828.40656 402.7986 1622.0
-823.3104 404.78528 1630.0
-818.12427 406.77197 1638.0
-804.94666 404.78528 1630.0
-791.85913 402.7986 1622.0
-782.72235 402.7986 1622.0
-770.24695 401.06024 1615.0
-764.4486 402.7986 1622.0
-759.0372 404.78528 1630.0
-749.8552 404.78528 1630.0
-740.67334 404.78528 1630.0
-731.49146 404.78528 1630.0
-722.3096 404.78528 1630.0
-716.6276 406.77197 1638.0
-703.94574 404.78528 1630.0
-694.76385 404.78528 1630.0
-685.5819 404.78528 1630.0
-673.08026 402.7986 1622.0
-663.9434 402.7986 1622.0
-654.80664 402.7986 1622.0
-645.6698 402.7986 1622.0
-639.6724 404.78528 1630.0
-627.39606 402.7986 1622.0
-621.30865 404.78528 1630.0
-615.13104 406.77197 1638.0
-605.9041 406.77197 1638.0
-593.76294 404.78528 1630.0
-584.58105 404.78528 1630.0
-570.104 401.06024 1615.0
-563.43823 402.7986 1622.0
-554.3014 402.7986 1622.0
-547.85345 404.78528 1630.0
-538.6715 404.78528 1630.0
-526.89087 402.7986 1622.0
-520.30774 404.78528 1630.0
-508.61725 402.7986 1622.0
-499.48038 402.7986 1622.0
-490.34357 402.7986 1622.0
-481.20673 402.7986 1622.0
-472.0699 402.7986 1622.0
-462.93304 402.7986 1622.0
-453.79617 402.7986 1622.0
-444.6594 402.7986 1622.0
-435.52252 402.7986 1622.0
-424.54556 401.06024 1615.0
-415.44818 401.06024 1615.0
-408.112 402.7986 1622.0
-397.25336 401.06024 1615.0
-389.83835 402.7986 1622.0
-382.5792 404.78528 1630.0
-371.5647 402.7986 1622.0
-360.86374 401.06024 1615.0
-353.29102 402.7986 1622.0
-344.15417 402.7986 1622.0
-335.01733 402.7986 1622.0
-325.8805 402.7986 1622.0
-315.3767 401.06024 1615.0
-306.27933 401.06024 1615.0
-298.46997 402.7986 1622.0
-289.33316 402.7986 1622.0
-280.19635 402.7986 1622.0
-271.05948 402.7986 1622.0
-261.92264 402.7986 1622.0
-252.78578 402.7986 1622.0
-243.64897 402.7986 1622.0
-235.66881 404.78528 1630.0
-225.37529 402.7986 1622.0
-216.23846 402.7986 1622.0
-207.1016 402.7986 1622.0
-197.96478 402.7986 1622.0
-189.75931 404.78528 1630.0
-180.57736 404.78528 1630.0
-171.39551 404.78528 1630.0
-162.21356 404.78528 1630.0
-152.28061 402.7986 1622.0
-143.84981 404.78528 1630.0
-114.17852 343.19833 1382.0
-106.39365 343.19833 1382.0
-98.60872 343.19833 1382.0
-105.61064 399.0736 1607.0
-97.03902 401.06024 1615.0
-87.941574 401.06024 1615.0
-79.18593 402.7986 1622.0
-70.394554 404.78528 1630.0
-61.212673 404.78528 1630.0
-51.77543 402.7986 1622.0
-42.638557 402.7986 1622.0
-33.501743 402.7986 1622.0
-24.259724 401.06024 1615.0
-15.162342 401.06024 1615.0
-6.0649595 401.06024 1615.0
3.0174005 399.0736 1607.0
12.069833 399.0736 1607.0
21.12215 399.0736 1607.0
30.174469 399.0736 1607.0
29.072247 295.76642 1191.0
35.901386 296.75977 1195.0
42.63297 296.75977 1195.0
84.86776 362.07175 1458.0
94.293846 366.7901 1477.0
102.61387 366.7901 1477.0
110.408134 365.05176 1470.0
118.20428 363.56174 1464.0
126.45107 363.56174 1464.0
156.90726 399.0736 1607.0
165.95958 399.0736 1607.0
178.38797 406.77197 1638.0
184.98051 401.06024 1615.0
194.07803 401.06024 1615.0
203.1754 401.06024 1615.0
213.19286 402.7986 1622.0
222.32967 402.7986 1622.0
231.46648 402.7986 1622.0
240.60341 402.7986 1622.0
249.74022 402.7986 1622.0
258.87704 402.7986 1622.0
269.33575 404.78528 1630.0
278.5176 404.78528 1630.0
287.69962 404.78528 1630.0
247.7048 337.73495 1360.0
254.42691 336.4933 1355.0
262.0597 336.4933 1355.0
333.6091 404.78528 1630.0
342.79102 404.78528 1630.0
351.97287 404.78528 1630.0
361.15472 404.78528 1630.0
370.33664 404.78528 1630.0
379.51862 404.78528 1630.0
388.7005 404.78528 1630.0
397.8824 404.78528 1630.0
409.0621 406.77197 1638.0
416.24615 404.78528 1630.0
425.4281 404.78528 1630.0
436.74307 406.77197 1638.0
443.79187 404.78528 1630.0
455.19693 406.77197 1638.0
462.15564 404.78528 1630.0
471.33762 404.78528 1630.0
480.51953 404.78528 1630.0
492.10483 406.77197 1638.0
501.33176 406.77197 1638.0
510.5587 406.77197 1638.0
519.78577 406.77197 1638.0
529.0127 406.77197 1638.0
538.2397 406.77197 1638.0
547.4666 406.77197 1638.0
556.69354 406.77197 1638.0
565.9206 406.77197 1638.0
575.1475 406.77197 1638.0
584.3745 406.77197 1638.0
593.60144 406.77197 1638.0
602.82837 406.77197 1638.0
612.0554 406.77197 1638.0
621.28235 406.77197 1638.0
633.2038 408.51028 1645.0
642.4702 408.51028 1645.0
651.7365 408.51028 1645.0
658.19025 406.77197 1638.0
670.2694 408.51028 1645.0
679.53577 408.51028 1645.0
565.2783 335.25162 1350.0
568.2151 332.51993 1339.0
573.60785 331.27826 1334.0
581.1223 331.27826 1334.0
588.63684 331.27826 1334.0
596.1513 331.27826 1334.0
603.66583 331.27826 1334.0
611.1804 331.27826 1334.0
618.6949 331.27826 1334.0
626.2094 331.27826 1334.0
631.34863 330.0366 1329.0
638.83496 330.0366 1329.0
646.32135 330.0366 1329.0
656.26746 331.27826 1334.0
663.782 331.27826 1334.0
671.29645 331.27826 1334.0
678.811 331.27826 1334.0
686.32556 331.27826 1334.0
693.84 331.27826 1334.0
701.35455 331.27826 1334.0
708.869 331.27826 1334.0
716.38354 331.27826 1334.0
723.8981 331.27826 1334.0
731.4126 331.27826 1334.0
741.6967 332.51993 1339.0
746.4416 331.27826 1334.0
753.9561 331.27826 1334.0
761.47064 331.27826 1334.0
768.98517 331.27826 1334.0
776.49963 331.27826 1334.0
786.95276 332.51993 1339.0
794.4954 332.51993 1339.0
802.03815 332.51993 1339.0
-843.0262 391.94528 1615.0
-833.9288 391.94528 1615.0
-824.83136 391.94528 1615.0
-819.26965 393.64407 1622.0
-814.12854 395.58563 1630.0
-800.996 393.64407 1622.0
-791.85913 393.64407 1622.0
-786.5828 395.58563 1630.0
-773.5855 393.64407 1622.0
-764.4486 393.64407 1622.0
-755.31177 393.64407 1622.0
-746.175 393.64407 1622.0
-740.67334 395.58563 1630.0
-727.9013 393.64407 1622.0
-718.76447 393.64407 1622.0
-713.1276 395.58563 1630.0
-703.94574 395.58563 1630.0
-694.76385 395.58563 1630.0
-685.5819 395.58563 1630.0
-676.4 395.58563 1630.0
-663.9434 393.64407 1622.0
-654.80664 393.64407 1622.0
-648.8543 395.58563 1630.0
-639.6724 395.58563 1630.0
-630.49054 395.58563 1630.0
-621.30865 395.58563 1630.0
-615.13104 397.52716 1638.0
-605.9041 397.52716 1638.0
-593.76294 395.58563 1630.0
-581.7119 393.64407 1622.0
-572.5751 393.64407 1622.0
-563.43823 393.64407 1622.0
-554.3014 393.64407 1622.0
-545.16455 393.64407 1622.0
-538.6715 395.58563 1630.0
-526.89087 393.64407 1622.0
-520.30774 395.58563 1630.0
-508.61725 393.64407 1622.0
-499.48038 393.64407 1622.0
-490.34357 393.64407 1622.0
-481.20673 393.64407 1622.0
-472.0699 393.64407 1622.0
-462.93304 393.64407 1622.0
-453.79617 393.64407 1622.0
-444.6594 393.64407 1622.0
-435.52252 393.64407 1622.0
-426.3857 393.64407 1622.0
-417.24887 393.64407 1622.0
-406.35077 391.94528 1615.0
-397.25336 391.94528 1615.0
-389.83835 393.64407 1622.0
-380.7015 393.64407 1622.0
-371.5647 393.64407 1622.0
-360.86374 391.94528 1615.0
-353.29102 393.64407 1622.0
-344.15417 393.64407 1622.0
-333.5715 391.94528 1615.0
-324.47415 391.94528 1615.0
-315.3767 391.94528 1615.0
-306.27933 391.94528 1615.0
-297.1819 391.94528 1615.0
-288.0845 391.94528 1615.0
-278.9871 391.94528 1615.0
-271.05948 393.64407 1622.0
-263.2145 395.58563 1630.0
-252.78578 393.64407 1622.0
-243.64897 393.64407 1622.0
-234.51216 393.64407 1622.0
-225.37529 393.64407 1622.0
-216.23846 393.64407 1622.0
-207.1016 393.64407 1622.0
-197.96478 393.64407 1622.0
-189.75931 395.58563 1630.0
-180.57736 395.58563 1630.0
-171.39551 395.58563 1630.0
-162.21356 395.58563 1630.0
-153.03168 395.58563 1630.0
-144.55582 397.52716 1638.0
-113.682816 333.94223 1376.0
-106.39365 335.39835 1382.0
-98.1806 333.94223 1376.0
-105.150604 388.30493 1600.0
-97.03902 391.94528 1615.0
-87.941574 391.94528 1615.0
-79.18593 393.64407 1622.0
-70.04906 393.64407 1622.0
-60.912243 393.64407 1622.0
-51.77543 393.64407 1622.0
-42.848858 395.58563 1630.0
-33.66698 395.58563 1630.0
-24.364874 393.64407 1622.0
-15.228061 393.64407 1622.0
-6.0649595 391.94528 1615.0
3.0324218 391.94528 1615.0
12.129919 391.94528 1615.0
21.2273 391.94528 1615.0
22.532272 291.22867 1200.0
29.169888 290.01523 1195.0
35.901386 290.01523 1195.0
42.811356 291.22867 1200.0
87.07968 363.0651 1496.0
95.889885 364.5212 1502.0
105.2539 367.6762 1515.0
113.78798 367.6762 1515.0
138.8025 390.00372 1607.0
147.85493 390.00372 1607.0
156.90726 390.00372 1607.0
165.95958 390.00372 1607.0
175.88315 391.94528 1615.0
184.06421 390.00372 1607.0
193.11665 390.00372 1607.0
202.16896 390.00372 1607.0
212.27278 391.94528 1615.0
222.32967 393.64407 1622.0
231.46648 393.64407 1622.0
240.60341 393.64407 1622.0
249.74022 393.64407 1622.0
257.7598 391.94528 1615.0
268.01385 393.64407 1622.0
277.15067 393.64407 1622.0
287.69962 395.58563 1630.0
246.79411 328.84573 1355.0
254.42691 328.84573 1355.0
263.0267 330.05917 1360.0
324.42712 395.58563 1630.0
333.6091 395.58563 1630.0
342.79102 395.58563 1630.0
351.97287 395.58563 1630.0
361.15472 395.58563 1630.0
370.33664 395.58563 1630.0
379.51862 395.58563 1630.0
388.7005 395.58563 1630.0
397.8824 395.58563 1630.0
407.06424 395.58563 1630.0
416.24615 395.58563 1630.0
425.4281 395.58563 1630.0
436.74307 397.52716 1638.0
445.97 397.52716 1638.0
455.19693 397.52716 1638.0
462.15564 395.58563 1630.0
473.65097 397.52716 1638.0
482.8779 397.52716 1638.0
492.10483 397.52716 1638.0
501.33176 397.52716 1638.0
510.5587 397.52716 1638.0
519.78577 397.52716 1638.0
529.0127 397.52716 1638.0
538.2397 397.52716 1638.0
547.4666 397.52716 1638.0
556.69354 397.52716 1638.0
565.9206 397.52716 1638.0
575.1475 397.52716 1638.0
584.3745 397.52716 1638.0
593.60144 397.52716 1638.0
602.82837 397.52716 1638.0
612.0554 397.52716 1638.0
621.28235 397.52716 1638.0
630.50934 397.52716 1638.0
642.4702 399.22598 1645.0
648.9632 397.52716 1638.0
658.19025 397.52716 1638.0
667.4172 397.52716 1638.0
676.64417 397.52716 1638.0
567.37195 328.84573 1355.0
570.33685 326.17612 1344.0
573.60785 323.7492 1334.0
581.1223 323.7492 1334.0
586.43054 322.53577 1329.0
593.9169 322.53577 1329.0
601.4032 322.53577 1329.0
611.1804 323.7492 1334.0
618.6949 323.7492 1334.0
623.8623 322.53577 1329.0
631.34863 322.53577 1329.0
641.2384 323.7492 1334.0
648.753 323.7492 1334.0
656.26746 323.7492 1334.0
663.782 323.7492 1334.0
673.81256 324.96268 1339.0
678.811 323.7492 1334.0
686.32556 323.7492 1334.0
693.84 323.7492 1334.0
701.35455 323.7492 1334.0
708.869 323.7492 1334.0
716.38354 323.7492 1334.0
723.8981 323.7492 1334.0
731.4126 323.7492 1334.0
738.9271 323.7492 1334.0
746.4416 323.7492 1334.0
753.9561 323.7492 1334.0
761.47064 323.7492 1334.0
768.98517 323.7492 1334.0
779.4101 324.96268 1339.0
789.8913 326.17612 1344.0
794.4954 324.96268 1339.0
802.03815 324.96268 1339.0
-852.1236 382.8302 1615.0
-843.0262 382.8302 1615.0
-833.9288 382.8302 1615.0
-824.83136 382.8302 1615.0
-819.26965 384.48956 1622.0
-810.1328 384.48956 1622.0
-797.5392 382.8302 1615.0
-791.85913 384.48956 1622.0
-782.72235 384.48956 1622.0
-777.40094 386.38593 1630.0
-764.4486 384.48956 1622.0
-759.0372 386.38593 1630.0
-749.8552 386.38593 1630.0
-740.67334 386.38593 1630.0
-727.9013 384.48956 1622.0
-718.76447 384.48956 1622.0
-713.1276 386.38593 1630.0
-707.4007 388.2823 1638.0
-694.76385 386.38593 1630.0
-685.5819 386.38593 1630.0
-676.4 386.38593 1630.0
-663.9434 384.48956 1622.0
-651.9807 382.8302 1615.0
-648.8543 386.38593 1630.0
-639.6724 386.38593 1630.0
-630.49054 386.38593 1630.0
-621.30865 386.38593 1630.0
-612.1267 386.38593 1630.0
-602.9449 386.38593 1630.0
-590.84875 384.48956 1622.0
-581.7119 384.48956 1622.0
-570.104 382.8302 1615.0
-561.00665 382.8302 1615.0
-554.3014 384.48956 1622.0
-547.85345 386.38593 1630.0
-538.6715 386.38593 1630.0
-526.89087 384.48956 1622.0
-520.30774 386.38593 1630.0
-511.12585 386.38593 1630.0
-499.48038 384.48956 1622.0
-490.34357 384.48956 1622.0
-481.20673 384.48956 1622.0
-472.0699 384.48956 1622.0
-462.93304 384.48956 1622.0
-453.79617 384.48956 1622.0
-444.6594 384.48956 1622.0
-435.52252 384.48956 1622.0
-426.3857 384.48956 1622.0
-417.24887 384.48956 1622.0
-408.112 384.48956 1622.0
-398.97522 384.48956 1622.0
-389.83835 384.48956 1622.0
-380.7015 384.48956 1622.0
-369.96118 382.8302 1615.0
-360.86374 382.8302 1615.0
-351.76633 382.8302 1615.0
-342.66888 382.8302 1615.0
-333.5715 382.8302 1615.0
-324.47415 382.8302 1615.0
-315.3767 382.8302 1615.0
-306.27933 382.8302 1615.0
-297.1819 382.8302 1615.0
-288.0845 382.8302 1615.0
-278.9871 382.8302 1615.0
-271.05948 384.48956 1622.0
-261.92264 384.48956 1622.0
-252.78578 384.48956 1622.0
-243.64897 384.48956 1622.0
-234.51216 384.48956 1622.0
-225.37529 384.48956 1622.0
-216.23846 384.48956 1622.0
-207.1016 384.48956 1622.0
-197.96478 384.48956 1622.0
-189.75931 386.38593 1630.0
-180.57736 386.38593 1630.0
-171.39551 386.38593 1630.0
-162.21356 386.38593 1630.0
-152.28061 384.48956 1622.0
-122.492966 329.02063 1388.0
-113.682816 326.1761 1376.0
-106.39365 327.5984 1382.0
-98.1806 326.1761 1376.0
-97.45962 384.48956 1622.0
-87.941574 382.8302 1615.0
-78.844185 382.8302 1615.0
-70.04906 384.48956 1622.0
-60.912243 384.48956 1622.0
-51.77543 384.48956 1622.0
-42.638557 384.48956 1622.0
-33.66698 386.38593 1630.0
-24.364874 384.48956 1622.0
-15.228061 384.48956 1622.0
-6.0649595 382.8302 1615.0
3.0324218 382.8302 1615.0
12.129919 382.8302 1615.0
21.2273 382.8302 1615.0
22.60738 285.40408 1204.0
29.169888 283.27066 1195.0
35.901386 283.27066 1195.0
42.63297 283.27066 1195.0
88.18564 359.12555 1515.0
96.33678 357.70328 1509.0
105.74023 360.7849 1522.0
114.83948 362.4442 1529.0
130.3961 382.8302 1615.0
140.09811 384.48956 1622.0
148.59099 382.8302 1615.0
157.68837 382.8302 1615.0
165.95958 380.93387 1607.0
175.88315 382.8302 1615.0
184.98051 382.8302 1615.0
194.07803 382.8302 1615.0
203.1754 382.8302 1615.0
212.27278 382.8302 1615.0
222.32967 384.48956 1622.0
232.60811 386.38593 1630.0
240.60341 384.48956 1622.0
249.74022 384.48956 1622.0
257.7598 382.8302 1615.0
268.01385 384.48956 1622.0
277.15067 384.48956 1622.0
287.69962 386.38593 1630.0
246.79411 321.1981 1355.0
254.42691 321.1981 1355.0
263.0267 322.38333 1360.0
324.42712 386.38593 1630.0
333.6091 386.38593 1630.0
342.79102 386.38593 1630.0
351.97287 386.38593 1630.0
361.15472 386.38593 1630.0
370.33664 386.38593 1630.0
379.51862 386.38593 1630.0
388.7005 386.38593 1630.0
397.8824 386.38593 1630.0
407.06424 386.38593 1630.0
416.24615 386.38593 1630.0
427.5161 388.2823 1638.0
434.61002 386.38593 1630.0
445.97 388.2823 1638.0
455.19693 388.2823 1638.0
464.42386 388.2823 1638.0
473.65097 388.2823 1638.0
482.8779 388.2823 1638.0
492.10483 388.2823 1638.0
501.33176 388.2823 1638.0
510.5587 388.2823 1638.0
519.78577 388.2823 1638.0
529.0127 388.2823 1638.0
538.2397 388.2823 1638.0
547.4666 388.2823 1638.0
556.69354 388.2823 1638.0
565.9206 388.2823 1638.0
575.1475 388.2823 1638.0
584.3745 388.2823 1638.0
593.60144 388.2823 1638.0
602.82837 388.2823 1638.0
612.0554 388.2823 1638.0
621.28235 388.2823 1638.0
630.50934 388.2823 1638.0
639.73627 388.2823 1638.0
648.9632 388.2823 1638.0
658.19025 388.2823 1638.0
667.4172 388.2823 1638.0
676.64417 388.2823 1638.0
567.37195 321.1981 1355.0
568.2151 317.40536 1339.0
571.4579 315.0349 1329.0
578.9442 315.0349 1329.0
588.63684 316.22015 1334.0
596.1513 316.22015 1334.0
603.66583 316.22015 1334.0
611.1804 316.22015 1334.0
618.6949 316.22015 1334.0
623.8623 315.0349 1329.0
631.34863 315.0349 1329.0
641.2384 316.22015 1334.0
648.753 316.22015 1334.0
656.26746 316.22015 1334.0
663.782 316.22015 1334.0
671.29645 316.22015 1334.0
678.811 316.22015 1334.0
686.32556 316.22015 1334.0
691.23944 315.0349 1329.0
701.35455 316.22015 1334.0
706.2121 315.0349 1329.0
716.38354 316.22015 1334.0
723.8981 316.22015 1334.0
731.4126 316.22015 1334.0
738.9271 316.22015 1334.0
746.4416 316.22015 1334.0
751.1302 315.0349 1329.0
761.47064 316.22015 1334.0
768.98517 316.22015 1334.0
779.4101 317.40536 1339.0
786.95276 317.40536 1339.0
794.4954 317.40536 1339.0
799.0432 316.22015 1334.0
-864.95386 375.33505 1622.0
-852.1236 373.71524 1615.0
-843.0262 373.71524 1615.0
-833.9288 373.71524 1615.0
-824.83136 373.71524 1615.0
-819.26965 375.33505 1622.0
-806.6366 373.71524 1615.0
-797.5392 373.71524 1615.0
-791.85913 375.33505 1622.0
-782.72235 375.33505 1622.0
-777.40094 377.18628 1630.0
-764.4486 375.33505 1622.0
-755.31177 375.33505 1622.0
-746.175 375.33505 1622.0
-740.67334 377.18628 1630.0
-727.9013 375.33505 1622.0
-722.3096 377.18628 1630.0
-713.1276 377.18628 1630.0
-703.94574 377.18628 1630.0
-691.354 375.33505 1622.0
-682.21716 375.33505 1622.0
-673.08026 375.33505 1622.0
-663.9434 375.33505 1622.0
-654.80664 375.33505 1622.0
-645.6698 375.33505 1622.0
-636.53296 375.33505 1622.0
-627.39606 375.33505 1622.0
-621.30865 377.18628 1630.0
-612.1267 377.18628 1630.0
-599.9856 375.33505 1622.0
-590.84875 375.33505 1622.0
-581.7119 375.33505 1622.0
-572.5751 375.33505 1622.0
-563.43823 375.33505 1622.0
-554.3014 375.33505 1622.0
-545.16455 375.33505 1622.0
-536.0278 375.33505 1622.0
-529.48956 377.18628 1630.0
-520.30774 377.18628 1630.0
-511.12585 377.18628 1630.0
-501.9439 377.18628 1630.0
-490.34357 375.33505 1622.0
-481.20673 375.33505 1622.0
-472.0699 375.33505 1622.0
-460.9352 373.71524 1615.0
-451.83777 373.71524 1615.0
-442.7404 373.71524 1615.0
-435.52252 375.33505 1622.0
-426.3857 375.33505 1622.0
-417.24887 375.33505 1622.0
-408.112 375.33505 1622.0
-398.97522 375.33505 1622.0
-389.83835 375.33505 1622.0
-380.7015 375.33505 1622.0
-369.96118 373.71524 1615.0
-360.86374 373.71524 1615.0
-353.29102 375.33505 1622.0
-344.15417 375.33505 1622.0
-335.01733 375.33505 1622.0
-327.48782 377.18628 1630.0
-316.74365 375.33505 1622.0
-306.27933 373.71524 1615.0
-297.1819 373.71524 1615.0
-289.33316 375.33505 1622.0
-280.19635 375.33505 1622.0
-271.05948 375.33505 1622.0
-261.92264 375.33505 1622.0
-252.78578 375.33505 1622.0
-243.64897 375.33505 1622.0
-234.51216 375.33505 1622.0
-225.37529 375.33505 1622.0
-216.23846 375.33505 1622.0
-207.1016 375.33505 1622.0
-197.96478 375.33505 1622.0
