ply
format ascii 1.0
element vertex 1744
property float x
property float y
property float z
end_header
376.27017 428.9979 1382.0
382.38766 427.13538 1376.0
387.30344 424.0312 1366.0
388.63666 417.202 1344.0
391.78552 412.54572 1329.0
399.27185 412.54572 1329.0
406.7582 412.54572 1329.0
414.24454 412.54572 1329.0
423.3176 414.0978 1334.0
430.8321 414.0978 1334.0
433.41763 409.44156 1319.0
432.49194 401.6811 1294.0
438.0818 400.129 1289.0
443.61542 398.5769 1284.0
450.84827 398.5769 1284.0
459.8649 400.129 1289.0
470.74985 403.2332 1299.0
479.90732 404.78528 1304.0
487.2529 404.78528 1304.0
492.70193 403.2332 1299.0
494.2454 398.5769 1284.0
494.05762 392.67896 1265.0
497.61768 389.8852 1256.0
503.0856 388.64352 1252.0
510.13815 388.64352 1252.0
517.19073 388.64352 1252.0
524.24335 388.64352 1252.0
529.17413 387.09143 1247.0
532.32874 384.29767 1238.0
539.3024 384.29767 1238.0
548.4824 385.84976 1243.0
557.2719 387.09143 1247.0
564.2963 387.09143 1247.0
571.32086 387.09143 1247.0
824.6961 538.8859 1736.0
838.80133 541.6797 1745.0
853.008 544.47345 1754.0
862.8884 544.47345 1754.0
872.7688 544.47345 1754.0
896.2361 552.85474 1781.0
910.84827 555.6485 1790.0
926.0765 558.7527 1800.0
936.21594 558.7527 1800.0
951.0872 561.54645 1809.0
966.5913 564.65063 1819.0
981.67096 567.4444 1828.0
997.39484 570.5486 1838.0
1002.26556 567.4444 1828.0
1018.1019 570.5486 1838.0
1039.6465 576.75696 1858.0
1055.7645 579.8611 1868.0
1071.9955 582.9653 1878.0
1088.3389 586.06946 1888.0
1105.377 589.4841 1899.0
1121.9513 592.58826 1909.0
1139.2316 596.00287 1920.0
1162.6259 602.5216 1941.0
-1230.4066 642.1592 2107.0
-1226.056 646.1213 2120.0
-1206.669 642.1592 2107.0
-1194.8 642.1592 2107.0
-1190.2297 646.1213 2120.0
-1185.513 650.0834 2133.0
-1173.4976 650.0834 2133.0
-1169.1057 654.35016 2147.0
-1164.0172 658.31226 2160.0
-1151.8497 658.31226 2160.0
-1147.0692 662.5791 2174.0
-1141.6088 666.54114 2187.0
-1129.2893 666.54114 2187.0
-1110.3303 662.5791 2174.0
-1098.084 662.5791 2174.0
-1092.3308 666.54114 2187.0
-1086.9248 670.808 2201.0
-1081.3613 675.0748 2215.0
-1068.884 675.0748 2215.0
-1063.5608 679.6464 2230.0
-1057.5973 683.9133 2244.0
-1044.9567 683.9133 2244.0
-1039.2166 688.4849 2259.0
-1026.4915 688.4849 2259.0
-1020.49786 693.0565 2274.0
-1014.3353 697.6282 2289.0
-1001.4412 697.6282 2289.0
-982.0691 693.0565 2274.0
-969.2595 693.0565 2274.0
-956.4498 693.0565 2274.0
-949.86487 697.6282 2289.0
-943.1108 702.19977 2304.0
-930.1322 702.19977 2304.0
-923.5227 707.0761 2320.0
-904.175 702.19977 2304.0
-897.3853 707.0761 2320.0
-890.0341 711.6477 2335.0
-876.8809 711.6477 2335.0
-869.64624 716.5241 2351.0
-856.40283 716.5241 2351.0
-843.15955 716.5241 2351.0
-835.5642 721.4005 2367.0
-822.2308 721.4005 2367.0
-814.7069 726.58167 2384.0
-801.2776 726.58167 2384.0
-787.84845 726.58167 2384.0
-774.4192 726.58167 2384.0
-766.0973 731.45807 2400.0
-757.9087 736.6392 2417.0
-749.5285 741.8204 2434.0
-735.8177 741.8204 2434.0
-717.06323 736.6392 2417.0
-708.3959 741.8204 2434.0
-694.685 741.8204 2434.0
-685.7302 747.0015 2451.0
-671.92365 747.0015 2451.0
-658.11694 747.0015 2451.0
-649.0421 752.4875 2469.0
-635.1341 752.4875 2469.0
-625.755 757.9734 2487.0
-611.7456 757.9734 2487.0
-602.06226 763.45935 2505.0
-587.9515 763.45935 2505.0
-573.8407 763.45935 2505.0
-559.7298 763.45935 2505.0
-545.61896 763.45935 2505.0
-531.5081 763.45935 2505.0
-517.3973 763.45935 2505.0
-510.72028 774.73596 2542.0
-496.40097 774.73596 2542.0
-485.49536 780.2219 2560.0
-471.07468 780.2219 2560.0
-456.65405 780.2219 2560.0
-445.6884 786.3174 2580.0
-431.155 786.3174 2580.0
-416.62177 786.3174 2580.0
-402.08835 786.3174 2580.0
-387.55508 786.3174 2580.0
-375.7689 792.10815 2599.0
-363.90747 798.2036 2619.0
-351.82077 804.29913 2639.0
-339.50873 810.3946 2659.0
-324.53043 810.3946 2659.0
-309.55215 810.3946 2659.0
-294.57376 810.3946 2659.0
-279.5955 810.3946 2659.0
-264.6171 810.3946 2659.0
-249.6388 810.3946 2659.0
-236.5138 816.7948 2680.0
-53.745094 300.81213 987.0
-47.892353 298.98346 981.0
-36.239403 294.1071 965.0
-30.707747 293.19278 962.0
-25.078411 290.75458 954.0
-19.70448 290.75458 954.0
-14.330512 290.75458 954.0
-8.956578 290.75458 954.0
-3.5751343 290.14505 952.0
1.7725117 287.70685 944.0
7.0676494 286.7925 941.0
12.407784 287.70685 944.0
17.762941 288.31638 946.0
23.04299 287.70685 944.0
28.510809 289.2307 949.0
33.749615 288.31638 946.0
39.078484 288.31638 946.0
44.07876 286.18295 939.0
49.21047 285.26865 936.0
54.948673 287.70685 944.0
60.777077 290.14505 952.0
66.278694 290.75458 954.0
439.89383 870.73987 2857.0
459.81796 878.05444 2881.0
472.08112 870.73987 2857.0
480.14386 856.41547 2810.0
492.0899 849.71045 2788.0
507.79483 849.71045 2788.0
278.46133 451.98013 1483.0
285.65472 450.1515 1477.0
293.97476 450.1515 1477.0
300.8622 448.01807 1470.0
309.14282 448.01807 1470.0
317.4234 448.01807 1470.0
324.37457 446.18942 1464.0
333.98456 448.01807 1470.0
342.26526 448.01807 1470.0
350.54587 448.01807 1470.0
352.96805 440.70346 1446.0
352.12305 429.7316 1410.0
358.53348 427.90295 1404.0
365.1374 426.3791 1399.0
371.41824 424.55045 1393.0
376.27017 421.19794 1382.0
382.38766 419.36926 1376.0
385.60226 414.4929 1360.0
387.19086 408.09265 1339.0
391.78552 405.0449 1329.0
399.27185 405.0449 1329.0
406.7582 405.0449 1329.0
414.24454 405.0449 1329.0
423.3176 406.56876 1334.0
429.2173 405.0449 1329.0
433.41763 401.99716 1319.0
432.49194 394.3778 1294.0
438.0818 392.85394 1289.0
443.61542 391.33005 1284.0
452.60388 392.85394 1289.0
459.8649 392.85394 1289.0
470.74985 395.90167 1299.0
478.0672 395.90167 1299.0
485.3846 395.90167 1299.0
490.80548 394.3778 1294.0
494.2454 391.33005 1284.0
494.05762 385.53934 1265.0
499.59863 384.32025 1261.0
503.0856 381.5773 1252.0
510.13815 381.5773 1252.0
517.19073 381.5773 1252.0
524.24335 381.5773 1252.0
527.47675 378.83432 1243.0
532.32874 377.31046 1238.0
539.3024 377.31046 1238.0
548.4824 378.83432 1243.0
555.4843 378.83432 1243.0
562.4862 378.83432 1243.0
573.61163 381.5773 1252.0
828.9717 531.83093 1745.0
838.80133 531.83093 1745.0
848.63116 531.83093 1745.0
862.8884 534.574 1754.0
886.2037 542.80286 1781.0
896.2361 542.80286 1781.0
910.84827 545.5458 1790.0
930.7068 551.33655 1809.0
931.0147 545.5458 1790.0
946.35547 548.5935 1800.0
966.5913 554.3843 1819.0
981.67096 557.1272 1828.0
997.39484 560.175 1838.0
1007.7484 560.175 1838.0
1023.6411 563.2227 1848.0
1039.6465 566.27045 1858.0
1055.7645 569.3182 1868.0
1071.9955 572.3659 1878.0
1088.3389 575.4137 1888.0
1105.377 578.76624 1899.0
1121.9513 581.81396 1909.0
1145.7585 588.519 1931.0
1162.6259 591.5667 1941.0
-1230.4066 630.2674 2107.0
-1218.5377 630.2674 2107.0
-1206.669 630.2674 2107.0
-1202.1719 634.15607 2120.0
-1197.5283 638.0448 2133.0
-1193.2941 642.2326 2147.0
-1181.1998 642.2326 2147.0
-1176.1846 646.1213 2160.0
-1164.0172 646.1213 2160.0
-1151.8497 646.1213 2160.0
-1147.0692 650.3091 2174.0
-1141.6088 654.1978 2187.0
-1129.2893 654.1978 2187.0
-1110.3303 650.3091 2174.0
-1098.084 650.3091 2174.0
-1099.3234 658.3857 2201.0
-1086.9248 658.3857 2201.0
-1081.3613 662.5734 2215.0
-1068.884 662.5734 2215.0
-1056.4069 662.5734 2215.0
-1050.999 667.06036 2230.0
-1044.9567 671.2482 2244.0
-1032.316 671.2482 2244.0
-1026.4915 675.73517 2259.0
-1020.49786 680.2221 2274.0
-1007.68835 680.2221 2274.0
-994.87866 680.2221 2274.0
-988.5471 684.7091 2289.0
-975.653 684.7091 2289.0
-962.7589 684.7091 2289.0
-949.86487 684.7091 2289.0
-943.1108 689.19604 2304.0
-930.1322 689.19604 2304.0
-917.1536 689.19604 2304.0
-910.45404 693.9821 2320.0
-897.3853 693.9821 2320.0
-884.3166 693.9821 2320.0
-871.24786 693.9821 2320.0
-869.64624 703.2552 2351.0
-856.40283 703.2552 2351.0
-843.15955 703.2552 2351.0
-835.5642 708.04126 2367.0
-822.2308 708.04126 2367.0
-814.7069 713.12646 2384.0
-801.2776 713.12646 2384.0
-793.136 717.91254 2400.0
-774.4192 713.12646 2384.0
-766.0973 717.91254 2400.0
-757.9087 722.9978 2417.0
-744.2935 722.9978 2417.0
-730.6784 722.9978 2417.0
-722.10675 728.08295 2434.0
-708.3959 728.08295 2434.0
-694.685 728.08295 2434.0
-685.7302 733.1682 2451.0
-671.92365 733.1682 2451.0
-658.11694 733.1682 2451.0
-649.0421 738.55255 2469.0
-635.1341 738.55255 2469.0
-621.22595 738.55255 2469.0
-611.7456 743.9369 2487.0
-602.06226 749.3212 2505.0
-587.9515 749.3212 2505.0
-573.8407 749.3212 2505.0
-559.7298 749.3212 2505.0
-545.61896 749.3212 2505.0
-531.5081 749.3212 2505.0
-517.3973 749.3212 2505.0
-510.72028 760.38904 2542.0
-496.40097 760.38904 2542.0
-485.49536 765.7734 2560.0
-471.07468 765.7734 2560.0
-456.65405 765.7734 2560.0
-445.6884 771.75604 2580.0
-431.155 771.75604 2580.0
-416.62177 771.75604 2580.0
-402.08835 771.75604 2580.0
-387.55508 771.75604 2580.0
-375.7689 777.43945 2599.0
-366.68643 789.40466 2639.0
-351.82077 789.40466 2639.0
-339.50873 795.38727 2659.0
-324.53043 795.38727 2659.0
-309.55215 795.38727 2659.0
-294.57376 795.38727 2659.0
-279.5955 795.38727 2659.0
-266.70697 801.66907 2680.0
-249.6388 795.38727 2659.0
-236.5138 801.66907 2680.0
-53.745094 295.24155 987.0
-47.892353 293.44678 981.0
-41.891235 290.1563 970.0
-36.352066 289.55807 968.0
-30.707747 287.76328 962.0
-25.157276 286.26764 957.0
-19.70448 285.37024 954.0
-14.330512 285.37024 954.0
-8.956578 285.37024 954.0
-3.563868 283.8746 949.0
1.7668787 281.48157 941.0
7.0676494 281.48157 941.0
12.368354 281.48157 941.0
17.762941 282.9772 946.0
23.04299 282.37894 944.0
28.42068 282.9772 946.0
33.678265 282.37894 944.0
38.99587 282.37894 944.0
44.17264 281.48157 941.0
49.893948 283.8746 949.0
55.41434 284.77197 952.0
60.777077 284.77197 952.0
66.487114 286.26764 957.0
71.877945 286.26764 957.0
443.58914 861.7942 2881.0
455.9875 854.61505 2857.0
472.08112 854.61505 2857.0
484.24475 847.73505 2834.0
495.97293 840.55597 2810.0
511.80182 840.55597 2810.0
277.33472 441.81534 1477.0
285.65472 441.81534 1477.0
293.97476 441.81534 1477.0
300.8622 439.72147 1470.0
310.6149 441.81534 1477.0
317.4234 439.72147 1470.0
324.37457 437.92667 1464.0
332.62137 437.92667 1464.0
340.86826 437.92667 1464.0
349.11505 437.92667 1464.0
347.10965 425.3632 1422.0
352.12305 421.77365 1410.0
358.53348 419.97885 1404.0
365.1374 418.4832 1399.0
371.41824 416.68842 1393.0
376.27017 413.39798 1382.0
382.38766 411.6032 1376.0
387.30344 408.6119 1366.0
385.74503 399.03973 1334.0
391.78552 397.54407 1329.0
399.27185 397.54407 1329.0
406.7582 397.54407 1329.0
414.24454 397.54407 1329.0
421.73093 397.54407 1329.0
429.2173 397.54407 1329.0
435.06064 396.04843 1324.0
434.1631 388.57016 1299.0
436.38248 384.08322 1284.0
443.61542 384.08322 1284.0
450.84827 384.08322 1284.0
459.8649 385.57886 1289.0
470.74985 388.57016 1299.0
478.0672 388.57016 1299.0
485.3846 388.57016 1299.0
490.80548 387.07452 1294.0
496.17 385.57886 1289.0
496.01044 379.8954 1270.0
499.59863 377.20322 1261.0
503.0856 374.51105 1252.0
510.13815 374.51105 1252.0
517.19073 374.51105 1252.0
524.24335 374.51105 1252.0
525.3549 370.32324 1238.0
532.32874 370.32324 1238.0
537.55994 369.1267 1234.0
548.4824 371.81888 1243.0
555.4843 371.81888 1243.0
564.2963 373.01538 1247.0
573.61163 374.51105 1252.0
828.9717 521.98224 1745.0
834.47516 519.2901 1736.0
848.63116 521.98224 1745.0
867.31604 527.3666 1763.0
881.72534 530.0588 1772.0
896.2361 532.751 1781.0
910.84827 535.4431 1790.0
926.0765 538.4344 1800.0
936.21594 538.4344 1800.0
946.35547 538.4344 1800.0
961.2774 541.1266 1809.0
976.8378 544.11786 1819.0
997.39484 549.8014 1838.0
1013.23126 552.79266 1848.0
1023.6411 552.79266 1848.0
1039.6465 555.784 1858.0
1055.7645 558.77527 1868.0
1071.9955 561.7666 1878.0
1094.6798 568.0483 1899.0
1111.1978 571.0396 1909.0
1121.9513 571.0396 1909.0
1145.7585 577.6205 1931.0
1162.6259 580.6118 1941.0
-1223.3992 614.8537 2095.0
-1211.5978 614.8537 2095.0
-1206.669 618.3755 2107.0
-1202.1719 622.19086 2120.0
-1197.5283 626.00616 2133.0
-1193.2941 630.1149 2147.0
-1188.352 633.9303 2160.0
-1176.1846 633.9303 2160.0
-1171.5618 638.0391 2174.0
-1151.8497 633.9303 2160.0
-1139.6824 633.9303 2160.0
-1134.8229 638.0391 2174.0
-1129.2893 641.85443 2187.0
-1116.9698 641.85443 2187.0
-1104.6503 641.85443 2187.0
-1092.3308 641.85443 2187.0
-1086.9248 645.9632 2201.0
-1074.5265 645.9632 2201.0
-1068.884 650.0721 2215.0
-1063.5608 654.47437 2230.0
-1057.5973 658.5831 2244.0
-1044.9567 658.5831 2244.0
-1032.316 658.5831 2244.0
-1026.4915 662.9854 2259.0
-1020.49786 667.38776 2274.0
-1007.68835 667.38776 2274.0
-994.87866 667.38776 2274.0
-988.5471 671.79004 2289.0
-975.653 671.79004 2289.0
-956.4498 667.38776 2274.0
-943.6403 667.38776 2274.0
-943.1108 676.1923 2304.0
-930.1322 676.1923 2304.0
-923.5227 680.8881 2320.0
-910.45404 680.8881 2320.0
-897.3853 680.8881 2320.0
-890.0341 685.2904 2335.0
-876.8809 685.2904 2335.0
-863.7277 685.2904 2335.0
-850.5745 685.2904 2335.0
-843.15955 689.98615 2351.0
-835.5642 694.68195 2367.0
-822.2308 694.68195 2367.0
-814.7069 699.6712 2384.0
-806.65533 704.367 2400.0
-793.136 704.367 2400.0
-779.61664 704.367 2400.0
-766.0973 704.367 2400.0
-752.5779 704.367 2400.0
-744.2935 709.35626 2417.0
-730.6784 709.35626 2417.0
-722.10675 714.3455 2434.0
-708.3959 714.3455 2434.0
-694.685 714.3455 2434.0
-680.97406 714.3455 2434.0
-671.92365 719.3348 2451.0
-658.11694 719.3348 2451.0
-644.3103 719.3348 2451.0
-630.5037 719.3348 2451.0
-621.22595 724.61755 2469.0
-611.7456 729.90027 2487.0
-597.7361 729.90027 2487.0
-587.9515 735.18304 2505.0
-573.8407 735.18304 2505.0
-559.7298 735.18304 2505.0
-545.61896 735.18304 2505.0
-531.5081 735.18304 2505.0
-521.1151 740.4658 2523.0
-510.72028 746.04205 2542.0
-496.40097 746.04205 2542.0
-485.49536 751.3248 2560.0
-471.07468 751.3248 2560.0
-456.65405 751.3248 2560.0
-442.23343 751.3248 2560.0
-431.155 757.19446 2580.0
-416.62177 757.19446 2580.0
-402.08835 757.19446 2580.0
-387.55508 757.19446 2580.0
-378.66052 768.6405 2619.0
-366.68643 774.5102 2639.0
-351.82077 774.5102 2639.0
-339.50873 780.37994 2659.0
-324.53043 780.37994 2659.0
-309.55215 780.37994 2659.0
-294.57376 780.37994 2659.0
-279.5955 780.37994 2659.0
-266.70697 786.5431 2680.0
-249.6388 780.37994 2659.0
-234.6605 780.37994 2659.0
-59.485214 290.5514 990.0
-53.745094 289.67093 987.0
-47.892353 287.91 981.0
-42.020794 285.5621 973.0
-36.352066 284.09467 968.0
-30.803507 283.21423 965.0
-25.20985 281.4533 959.0
-19.766441 280.86633 957.0
-14.330512 279.98587 954.0
-8.937801 279.3989 952.0
-3.5526016 277.63797 946.0
1.7668787 276.17056 941.0
7.0676494 276.17056 941.0
12.368354 276.17056 941.0
17.669056 276.17056 941.0
22.96976 276.17056 941.0
28.360594 277.05103 944.0
33.678265 277.05103 944.0
39.078484 277.63797 946.0
44.54818 278.51843 949.0
50.051674 279.3989 952.0
55.530754 279.98587 954.0
60.904762 279.98587 954.0
66.62607 281.4533 959.0
72.25349 282.33377 962.0
78.15693 284.09467 968.0
84.04159 285.5621 973.0
443.58914 845.5339 2881.0
459.81796 845.5339 2881.0
468.28064 831.74005 2834.0
480.14386 824.6963 2810.0
495.97293 824.6963 2810.0
511.80182 824.6963 2810.0
277.33472 433.4792 1477.0
285.65472 433.4792 1477.0
292.5815 431.42477 1470.0
300.8622 431.42477 1470.0
309.14282 431.42477 1470.0
317.4234 431.42477 1470.0
324.37457 429.66388 1464.0
332.62137 429.66388 1464.0
340.86826 429.66388 1464.0
347.68427 427.90292 1458.0
344.18045 413.81558 1410.0
350.62466 412.0547 1404.0
357.25665 410.58725 1399.0
363.57138 408.82632 1393.0
370.08508 407.3589 1388.0
376.27017 405.598 1382.0
382.38766 403.83707 1376.0
385.60226 399.14127 1360.0
385.74503 391.51065 1334.0
391.78552 390.0432 1329.0
399.27185 390.0432 1329.0
406.7582 390.0432 1329.0
414.24454 390.0432 1329.0
421.73093 390.0432 1329.0
429.2173 390.0432 1329.0
433.41763 387.10837 1319.0
432.49194 379.7712 1294.0
438.0818 378.30377 1289.0
443.61542 376.83633 1284.0
450.84827 376.83633 1284.0
459.8649 378.30377 1289.0
468.9379 379.7712 1294.0
478.0672 381.23865 1299.0
485.3846 381.23865 1299.0
490.80548 379.7712 1294.0
496.17 378.30377 1289.0
497.96323 374.19498 1275.0
499.59863 370.08615 1261.0
503.0856 367.4448 1252.0
510.13815 367.4448 1252.0
517.19073 367.4448 1252.0
522.1497 365.97736 1247.0
525.3549 363.33597 1238.0
532.32874 363.33597 1238.0
537.55994 362.16202 1234.0
546.2762 363.33597 1238.0
555.4843 364.8034 1243.0
562.4862 364.8034 1243.0
571.32086 365.97736 1247.0
820.8957 507.14423 1728.0
834.47516 509.4921 1736.0
853.008 514.7749 1754.0
867.31604 517.41626 1763.0
881.72534 520.0576 1772.0
896.2361 522.699 1781.0
910.84827 525.3404 1790.0
920.9316 525.3404 1790.0
931.0147 525.3404 1790.0
951.0872 530.9166 1809.0
966.5913 533.8515 1819.0
981.67096 536.49286 1828.0
1002.82135 542.36255 1848.0
1018.7141 545.2974 1858.0
1029.1803 545.2974 1858.0
1045.2421 548.2323 1868.0
1055.7645 548.2323 1868.0
1071.9955 551.1672 1878.0
1088.3389 554.10205 1888.0
1105.377 557.3304 1899.0
1121.9513 560.26526 1909.0
1145.7585 566.7219 1931.0
1156.636 566.7219 1931.0
-1223.3992 603.0296 2095.0
-1218.5377 606.4837 2107.0
-1206.669 606.4837 2107.0
-1209.5437 613.9676 2133.0
-1205.3883 617.9974 2147.0
-1193.2941 617.9974 2147.0
-1188.352 621.7393 2160.0
-1176.1846 621.7393 2160.0
-1164.0172 621.7393 2160.0
-1144.9174 617.9974 2147.0
-1139.6824 621.7393 2160.0
-1134.8229 625.7691 2174.0
-1129.2893 629.5111 2187.0
-1116.9698 629.5111 2187.0
-1104.6503 629.5111 2187.0
-1099.3234 633.54083 2201.0
-1093.8385 637.5707 2215.0
-1081.3613 637.5707 2215.0
-1068.884 637.5707 2215.0
-1063.5608 641.8883 2230.0
-1057.5973 645.918 2244.0
-1044.9567 645.918 2244.0
-1039.2166 650.2357 2259.0
-1026.4915 650.2357 2259.0
-1013.7663 650.2357 2259.0
-1007.68835 654.55334 2274.0
-994.87866 654.55334 2274.0
-982.0691 654.55334 2274.0
-969.2595 654.55334 2274.0
-956.4498 654.55334 2274.0
-949.86487 658.871 2289.0
-943.1108 663.1886 2304.0
-936.59143 667.7941 2320.0
-923.5227 667.7941 2320.0
-916.3406 672.11176 2335.0
-897.3853 667.7941 2320.0
-890.0341 672.11176 2335.0
-876.8809 672.11176 2335.0
-863.7277 672.11176 2335.0
-850.5745 672.11176 2335.0
-843.15955 676.7172 2351.0
-835.5642 681.3227 2367.0
-822.2308 681.3227 2367.0
-814.7069 686.216 2384.0
-801.2776 686.216 2384.0
-793.136 690.8215 2400.0
-779.61664 690.8215 2400.0
-766.0973 690.8215 2400.0
-752.5779 690.8215 2400.0
-739.05853 690.8215 2400.0
-730.6784 695.71484 2417.0
-722.10675 700.6081 2434.0
-708.3959 700.6081 2434.0
-694.685 700.6081 2434.0
-680.97406 700.6081 2434.0
-671.92365 705.5014 2451.0
-658.11694 705.5014 2451.0
-644.3103 705.5014 2451.0
-635.1341 710.68256 2469.0
-621.22595 710.68256 2469.0
-607.318 710.68256 2469.0
-593.40985 710.68256 2469.0
-587.9515 721.0449 2505.0
-573.8407 721.0449 2505.0
-563.75183 726.2261 2523.0
-545.61896 721.0449 2505.0
-531.5081 721.0449 2505.0
-521.1151 726.2261 2523.0
-510.72028 731.6951 2542.0
-496.40097 731.6951 2542.0
-482.08176 731.6951 2542.0
-471.07468 736.8763 2560.0
-456.65405 736.8763 2560.0
-442.23343 736.8763 2560.0
-431.155 742.6331 2580.0
-416.62177 742.6331 2580.0
-405.04947 748.10205 2599.0
-393.41348 753.85895 2619.0
-378.66052 753.85895 2619.0
-366.68643 759.6158 2639.0
-351.82077 759.6158 2639.0
-339.50873 765.3726 2659.0
-324.53043 765.3726 2659.0
-309.55215 765.3726 2659.0
-294.57376 765.3726 2659.0
-279.5955 765.3726 2659.0
-266.70697 771.41736 2680.0
-249.6388 765.3726 2659.0
-232.89548 759.6158 2639.0
-77.52416 289.85718 1007.0
-71.42354 288.13013 1001.0
-65.39053 286.40308 995.0
-59.485214 284.96387 990.0
-53.745094 284.1003 987.0
-47.74589 281.50974 978.0
-42.020794 280.07053 973.0
-36.427174 279.20703 970.0
-30.803507 277.76782 965.0
-25.288713 276.90427 962.0
-19.807753 276.04074 959.0
-14.330512 274.60153 954.0
-8.909636 273.16232 949.0
-3.5526016 272.2988 946.0
1.7668787 270.8596 941.0
7.0676494 270.8596 941.0
12.368354 270.8596 941.0
17.725388 271.7231 944.0
22.96976 270.8596 941.0
28.270464 270.8596 941.0
33.678265 271.7231 944.0
39.078484 272.2988 946.0
44.54818 273.16232 949.0
50.051674 274.02585 952.0
55.41434 274.02585 952.0
61.096287 275.46506 957.0
66.62607 276.04074 959.0
72.25349 276.90427 962.0
78.56063 280.07053 973.0
84.47346 281.50974 978.0
427.3603 829.2736 2881.0
443.58914 829.2736 2881.0
455.9875 822.3654 2857.0
472.08112 822.3654 2857.0
480.14386 808.83685 2810.0
495.97293 808.83685 2810.0
511.80182 808.83685 2810.0
276.02032 423.12817 1470.0
284.30093 423.12817 1470.0
292.5815 423.12817 1470.0
300.8622 423.12817 1470.0
309.14282 423.12817 1470.0
317.4234 423.12817 1470.0
325.70395 423.12817 1470.0
332.62137 421.4011 1464.0
340.86826 421.4011 1464.0
347.68427 419.67404 1458.0
344.18045 405.85764 1410.0
350.62466 404.13055 1404.0
357.25665 402.69135 1399.0
363.57138 400.9643 1393.0
370.08508 399.5251 1388.0
374.6366 396.07098 1376.0
380.99817 394.63177 1371.0
385.60226 391.4655 1360.0
385.74503 383.9816 1334.0
393.25952 383.9816 1334.0
399.27185 382.5424 1329.0
406.7582 382.5424 1329.0
414.24454 382.5424 1329.0
423.3176 383.9816 1334.0
429.2173 382.5424 1329.0
431.77466 378.22476 1314.0
432.49194 372.46793 1294.0
438.0818 371.02872 1289.0
443.61542 369.58948 1284.0
450.84827 369.58948 1284.0
459.8649 371.02872 1289.0
468.9379 372.46793 1294.0
478.0672 373.90714 1299.0
485.3846 373.90714 1299.0
492.70193 373.90714 1299.0
496.17 371.02872 1289.0
497.96323 366.9989 1275.0
499.59863 362.96912 1261.0
503.0856 360.37854 1252.0
510.13815 360.37854 1252.0
517.19073 360.37854 1252.0
522.1497 358.93933 1247.0
525.3549 356.34875 1238.0
532.32874 356.34875 1238.0
535.38184 353.75818 1229.0
544.5111 355.1974 1234.0
553.2499 356.34875 1238.0
562.4862 357.78796 1243.0
571.32086 358.93933 1247.0
820.8957 497.39145 1728.0
834.47516 499.69418 1736.0
848.63116 502.2848 1745.0
862.8884 504.87534 1754.0
872.7688 504.87534 1754.0
896.2361 512.6471 1781.0
910.84827 515.2377 1790.0
920.9316 515.2377 1790.0
936.21594 518.1161 1800.0
946.35547 518.1161 1800.0
961.2774 520.70667 1809.0
981.67096 526.1757 1828.0
1002.82135 531.93256 1848.0
1024.1969 537.6894 1868.0
1040.2587 540.5678 1878.0
1045.2421 537.6894 1868.0
1055.7645 537.6894 1868.0
1071.9955 540.5678 1878.0
1088.3389 543.4462 1888.0
1105.377 546.6125 1899.0
1121.9513 549.4909 1909.0
1139.2316 552.65717 1920.0
1150.0472 552.65717 1920.0
-1223.3992 591.2055 2095.0
-1211.5978 591.2055 2095.0
-1206.669 594.59186 2107.0
-1202.1719 598.26044 2120.0
-1197.5283 601.929 2133.0
-1193.2941 605.8798 2147.0
-1188.352 609.5484 2160.0
-1176.1846 609.5484 2160.0
-1164.0172 609.5484 2160.0
-1144.9174 605.8798 2147.0
-1139.6824 609.5484 2160.0
-1127.5149 609.5484 2160.0
-1122.5765 613.49915 2174.0
-1116.9698 617.1677 2187.0
-1111.7217 621.1185 2201.0
-1099.3234 621.1185 2201.0
-1093.8385 625.0693 2215.0
-1081.3613 625.0693 2215.0
-1068.884 625.0693 2215.0
-1063.5608 629.30225 2230.0
-1050.999 629.30225 2230.0
-1044.9567 633.25305 2244.0
-1039.2166 637.486 2259.0
-1033.3075 641.719 2274.0
-1013.7663 637.486 2259.0
-1007.68835 641.719 2274.0
-994.87866 641.719 2274.0
-982.0691 641.719 2274.0
-969.2595 641.719 2274.0
-956.4498 641.719 2274.0
-949.86487 645.95197 2289.0
-943.1108 650.18494 2304.0
-930.1322 650.18494 2304.0
-917.1536 650.18494 2304.0
-910.45404 654.70013 2320.0
-897.3853 654.70013 2320.0
-884.3166 654.70013 2320.0
-871.24786 654.70013 2320.0
-858.17914 654.70013 2320.0
-850.5745 658.9331 2335.0
-837.42126 658.9331 2335.0
-829.9161 663.44824 2351.0
-822.2308 667.96344 2367.0
-808.89734 667.96344 2367.0
-806.65533 677.276 2400.0
-787.84845 672.7608 2384.0
-774.4192 672.7608 2384.0
-760.9899 672.7608 2384.0
-752.5779 677.276 2400.0
-739.05853 677.276 2400.0
-730.6784 682.07336 2417.0
-717.06323 682.07336 2417.0
-708.3959 686.8707 2434.0
-694.685 686.8707 2434.0
-680.97406 686.8707 2434.0
-671.92365 691.6681 2451.0
-658.11694 691.6681 2451.0
-649.0421 696.7477 2469.0
-635.1341 696.7477 2469.0
-621.22595 696.7477 2469.0
-607.318 696.7477 2469.0
-597.7361 701.8272 2487.0
-587.9515 706.9068 2505.0
-573.8407 706.9068 2505.0
-563.75183 711.9864 2523.0
-545.61896 706.9068 2505.0
-531.5081 706.9068 2505.0
-521.1151 711.9864 2523.0
-506.90292 711.9864 2523.0
-492.69064 711.9864 2523.0
-478.47845 711.9864 2523.0
-467.76242 717.34814 2542.0
-456.65405 722.4277 2560.0
-442.23343 722.4277 2560.0
-431.155 728.07166 2580.0
-416.62177 728.07166 2580.0
-402.08835 728.07166 2580.0
-393.41348 739.0774 2619.0
-378.66052 739.0774 2619.0
-366.68643 744.7214 2639.0
-351.82077 744.7214 2639.0
-336.95505 744.7214 2639.0
-324.53043 750.36536 2659.0
-309.55215 750.36536 2659.0
-294.57376 750.36536 2659.0
-279.5955 750.36536 2659.0
-264.6171 750.36536 2659.0
-249.6388 750.36536 2659.0
-234.6605 750.36536 2659.0
-84.18807 287.5601 1019.0
-77.52416 284.1737 1007.0
-71.20947 281.6339 998.0
-65.259094 280.22293 993.0
-59.304955 278.52975 987.0
-53.581738 277.68314 984.0
-47.64825 275.42557 976.0
-42.020794 274.57898 973.0
-36.427174 273.73236 970.0
-30.89927 273.16797 968.0
-25.288713 271.4748 962.0
-19.70448 269.2172 954.0
-14.3004675 268.6528 952.0
-8.862694 266.3952 944.0
-3.5450912 266.3952 944.0
1.7668787 265.5486 941.0
7.0676494 265.5486 941.0
12.368354 265.5486 941.0
17.669056 265.5486 941.0
22.96976 265.5486 941.0
28.270464 265.5486 941.0
33.678265 266.3952 944.0
39.078484 266.95963 946.0
44.54818 267.8062 949.0
50.051674 268.6528 952.0
55.530754 269.2172 954.0
61.096287 270.06378 957.0
66.62607 270.6282 959.0
72.70413 273.16797 968.0
84.73258 276.83655 981.0
427.3603 813.01337 2881.0
443.58914 813.01337 2881.0
459.81796 813.01337 2881.0
468.28064 799.75006 2834.0
480.14386 792.9773 2810.0
492.0899 786.7689 2788.0
507.79483 786.7689 2788.0
276.02032 414.83154 1470.0
284.30093 414.83154 1470.0
292.5815 414.83154 1470.0
300.8622 414.83154 1470.0
309.14282 414.83154 1470.0
317.4234 414.83154 1470.0
325.70395 414.83154 1470.0
332.62137 413.13834 1464.0
340.86826 413.13834 1464.0
347.68427 411.44516 1458.0
344.18045 397.89963 1410.0
350.62466 396.20645 1404.0
357.25665 394.79544 1399.0
363.57138 393.10226 1393.0
368.4853 389.99808 1382.0
374.6366 388.3049 1376.0
380.99817 386.8939 1371.0
384.1846 382.37872 1355.0
387.19086 377.86356 1339.0
393.25952 376.45255 1334.0
399.27185 375.04156 1329.0
406.7582 375.04156 1329.0
414.24454 375.04156 1329.0
423.3176 376.45255 1334.0
430.8321 376.45255 1334.0
431.77466 370.8086 1314.0
430.8208 363.75363 1289.0
438.0818 363.75363 1289.0
443.61542 362.34265 1284.0
450.84827 362.34265 1284.0
458.0811 362.34265 1284.0
467.12592 363.75363 1289.0
476.22705 365.16464 1294.0
483.5163 365.16464 1294.0
488.90903 363.75363 1289.0
496.17 363.75363 1289.0
497.96323 359.80286 1275.0
497.61768 354.4411 1256.0
503.0856 353.3123 1252.0
510.13815 353.3123 1252.0
517.19073 353.3123 1252.0
524.24335 353.3123 1252.0
525.3549 349.3615 1238.0
530.60876 348.23273 1234.0
535.38184 346.82175 1229.0
544.5111 348.23273 1234.0
553.2499 349.3615 1238.0
562.4862 350.77252 1243.0
824.6961 489.89627 1736.0
838.80133 492.43607 1745.0
853.008 494.97586 1754.0
862.8884 494.97586 1754.0
872.7688 494.97586 1754.0
896.2361 502.5952 1781.0
906.2686 502.5952 1781.0
920.9316 505.135 1790.0
931.0147 505.135 1790.0
951.0872 510.49677 1809.0
966.5913 513.3187 1819.0
981.67096 515.8585 1828.0
1002.82135 521.5025 1848.0
1024.1969 527.1465 1868.0
1034.7195 527.1465 1868.0
1045.2421 527.1465 1868.0
1055.7645 527.1465 1868.0
1071.9955 529.96844 1878.0
1088.3389 532.7904 1888.0
1105.377 535.8946 1899.0
1121.9513 538.7166 1909.0
1139.2316 541.8208 1920.0
1150.0472 541.8208 1920.0
-1230.4066 582.7 2107.0
-1218.5377 582.7 2107.0
-1221.559 589.89044 2133.0
-1209.5437 589.89044 2133.0
-1197.5283 589.89044 2133.0
-1185.513 589.89044 2133.0
-1181.1998 593.7622 2147.0
-1169.1057 593.7622 2147.0
-1157.0116 593.7622 2147.0
-1144.9174 593.7622 2147.0
-1132.8231 593.7622 2147.0
-1127.5149 597.3574 2160.0
-1122.5765 601.2292 2174.0
-1124.1201 608.69617 2201.0
-1111.7217 608.69617 2201.0
-1106.3158 612.5679 2215.0
-1093.8385 612.5679 2215.0
-1081.3613 612.5679 2215.0
-1068.884 612.5679 2215.0
-1056.4069 612.5679 2215.0
-1050.999 616.7162 2230.0
-1044.9567 620.588 2244.0
-1039.2166 624.7363 2259.0
-1026.4915 624.7363 2259.0
-1013.7663 624.7363 2259.0
-1007.68835 628.88464 2274.0
-994.87866 628.88464 2274.0
-982.0691 628.88464 2274.0
-975.653 633.03296 2289.0
-962.7589 633.03296 2289.0
-956.0894 637.1813 2304.0
-943.1108 637.1813 2304.0
-930.1322 637.1813 2304.0
-917.1536 637.1813 2304.0
-904.175 637.1813 2304.0
-897.3853 641.6061 2320.0
-884.3166 641.6061 2320.0
-871.24786 641.6061 2320.0
-858.17914 641.6061 2320.0
-850.5745 645.7544 2335.0
-837.42126 645.7544 2335.0
-829.9161 650.1793 2351.0
-822.2308 654.6041 2367.0
-808.89734 654.6041 2367.0
-801.2776 659.3056 2384.0
-787.84845 659.3056 2384.0
-774.4192 659.3056 2384.0
-760.9899 659.3056 2384.0
-752.5779 663.73047 2400.0
-739.05853 663.73047 2400.0
-725.5392 663.73047 2400.0
-717.06323 668.4319 2417.0
-708.3959 673.13336 2434.0
-694.685 673.13336 2434.0
-685.7302 677.8347 2451.0
-671.92365 677.8347 2451.0
-658.11694 677.8347 2451.0
-653.77386 687.79065 2487.0
-635.1341 682.81274 2469.0
-621.22595 682.81274 2469.0
-611.7456 687.79065 2487.0
-597.7361 687.79065 2487.0
-587.9515 692.7687 2505.0
-573.8407 692.7687 2505.0
-563.75183 697.74664 2523.0
-545.61896 692.7687 2505.0
-531.5081 692.7687 2505.0
-521.1151 697.74664 2523.0
-506.90292 697.74664 2523.0
-496.40097 703.00116 2542.0
-482.08176 703.00116 2542.0
-471.07468 707.9791 2560.0
-456.65405 707.9791 2560.0
-442.23343 707.9791 2560.0
-431.155 713.51025 2580.0
-416.62177 713.51025 2580.0
-402.08835 713.51025 2580.0
-390.40918 718.7648 2599.0
-378.66052 724.2959 2619.0
-366.68643 729.82697 2639.0
-349.15448 724.2959 2619.0
-336.95505 729.82697 2639.0
-324.53043 735.35803 2659.0
-309.55215 735.35803 2659.0
-294.57376 735.35803 2659.0
-279.5955 735.35803 2659.0
-264.6171 735.35803 2659.0
-251.61038 741.16565 2680.0
-236.5138 741.16565 2680.0
-84.43593 282.63858 1022.0
-77.52416 278.49026 1007.0
-71.20947 276.00125 998.0
-65.39053 275.17157 995.0
-59.304955 272.95917 987.0
-53.581738 272.1295 984.0
-47.64825 269.91705 976.0
-42.020794 269.0874 973.0
-36.539833 269.0874 973.0
-30.963112 268.25772 970.0
-25.288713 266.04532 962.0
-19.66317 263.27975 952.0
-14.180297 261.06732 944.0
-8.862694 261.06732 944.0
-3.5338247 260.23764 941.0
1.7631234 259.68454 939.0
7.0676494 260.23764 941.0
12.368354 260.23764 941.0
17.725388 261.06732 944.0
23.04299 261.06732 944.0
28.360594 261.06732 944.0
33.678265 261.06732 944.0
39.078484 261.62042 946.0
44.407352 261.62042 946.0
49.893948 262.45007 949.0
55.41434 263.27975 952.0
61.096287 264.66254 957.0
66.62607 265.21564 959.0
72.25349 266.04532 962.0
443.58914 796.7531 2881.0
459.81796 796.7531 2881.0
468.28064 783.75507 2834.0
480.14386 777.11774 2810.0
492.0899 771.03357 2788.0
267.73975 406.5349 1470.0
276.02032 406.5349 1470.0
284.30093 406.5349 1470.0
292.5815 406.5349 1470.0
300.8622 406.5349 1470.0
309.14282 406.5349 1470.0
318.93494 408.4708 1477.0
325.70395 406.5349 1470.0
333.98456 406.5349 1470.0
340.86826 404.87558 1464.0
347.68427 403.21625 1458.0
344.18045 389.94165 1410.0
350.62466 388.28232 1404.0
357.25665 386.89954 1399.0
363.57138 385.24023 1393.0
370.08508 383.85745 1388.0
374.6366 380.5388 1376.0
380.99817 379.156 1371.0
384.1846 374.73114 1355.0
387.19086 370.30627 1339.0
393.25952 368.92352 1334.0
399.27185 367.54074 1329.0
406.7582 367.54074 1329.0
414.24454 367.54074 1329.0
421.73093 367.54074 1329.0
430.8321 368.92352 1334.0
433.41763 364.7752 1319.0
430.8208 356.47858 1289.0
436.38248 355.0958 1284.0
443.61542 355.0958 1284.0
450.84827 355.0958 1284.0
459.8649 356.47858 1289.0
468.9379 357.86133 1294.0
478.0672 359.2441 1299.0
485.3846 359.2441 1299.0
488.90903 356.47858 1289.0
496.17 356.47858 1289.0
497.96323 352.6068 1275.0
497.61768 347.35226 1256.0
503.0856 346.24606 1252.0
508.10086 344.8633 1247.0
517.19073 346.24606 1252.0
524.24335 346.24606 1252.0
527.47675 343.75708 1243.0
530.60876 341.26807 1234.0
535.38184 339.8853 1229.0
548.4824 343.75708 1243.0
557.2719 344.8633 1247.0
564.2963 344.8633 1247.0
573.61163 346.24606 1252.0
820.8957 477.88593 1728.0
838.80133 482.58734 1745.0
848.63116 482.58734 1745.0
862.8884 485.0764 1754.0
872.7688 485.0764 1754.0
896.2361 492.54333 1781.0
906.2686 492.54333 1781.0
920.9316 495.0323 1790.0
936.21594 497.79785 1800.0
956.3447 503.0524 1819.0
961.2774 500.28687 1809.0
981.67096 505.54138 1828.0
997.39484 508.30692 1838.0
1018.7141 513.838 1858.0
1034.7195 516.6035 1868.0
1045.2421 516.6035 1868.0
1055.7645 516.6035 1868.0
1071.9955 519.3691 1878.0
1094.6798 525.17676 1899.0
1105.377 525.17676 1899.0
1121.9513 527.9423 1909.0
1139.2316 530.9844 1920.0
1143.4584 527.9423 1909.0
-1223.3992 567.55725 2095.0
-1211.5978 567.55725 2095.0
-1214.1139 574.33 2120.0
-1202.1719 574.33 2120.0
-1190.2297 574.33 2120.0
-1178.2876 574.33 2120.0
-1181.1998 581.64465 2147.0
-1169.1057 581.64465 2147.0
-1164.0172 585.16644 2160.0
-1151.8497 585.16644 2160.0
-1139.6824 585.16644 2160.0
-1127.5149 585.16644 2160.0
-1122.5765 588.95917 2174.0
-1124.1201 596.2738 2201.0
-1111.7217 596.2738 2201.0
-1099.3234 596.2738 2201.0
-1086.9248 596.2738 2201.0
-1081.3613 600.0665 2215.0
-1068.884 600.0665 2215.0
-1063.5608 604.1302 2230.0
-1057.5973 607.9229 2244.0
-1051.9417 611.9866 2259.0
-1039.2166 611.9866 2259.0
-1026.4915 611.9866 2259.0
-1013.7663 611.9866 2259.0
-1007.68835 616.05023 2274.0
-1001.4412 620.1139 2289.0
-988.5471 620.1139 2289.0
-982.0466 624.17755 2304.0
-969.06793 624.17755 2304.0
-956.0894 624.17755 2304.0
-936.9707 620.1139 2289.0
-930.1322 624.17755 2304.0
-917.1536 624.17755 2304.0
-910.45404 628.5121 2320.0
-897.3853 628.5121 2320.0
-884.3166 628.5121 2320.0
-876.8809 632.57574 2335.0
-869.64624 636.91034 2351.0
-856.40283 636.91034 2351.0
-843.15955 636.91034 2351.0
-829.9161 636.91034 2351.0
-822.2308 641.24493 2367.0
-808.89734 641.24493 2367.0
-801.2776 645.8504 2384.0
-787.84845 645.8504 2384.0
-779.61664 650.18494 2400.0
-766.0973 650.18494 2400.0
-752.5779 650.18494 2400.0
-739.05853 650.18494 2400.0
-725.5392 650.18494 2400.0
-712.0198 650.18494 2400.0
-708.3959 659.3959 2434.0
-694.685 659.3959 2434.0
-685.7302 664.0014 2451.0
-671.92365 664.0014 2451.0
-658.11694 664.0014 2451.0
-649.0421 668.87775 2469.0
-635.1341 668.87775 2469.0
-621.22595 668.87775 2469.0
-607.318 668.87775 2469.0
-597.7361 673.75415 2487.0
-587.9515 678.6305 2505.0
-573.8407 678.6305 2505.0
-559.7298 678.6305 2505.0
-545.61896 678.6305 2505.0
-531.5081 678.6305 2505.0
-521.1151 683.50696 2523.0
-506.90292 683.50696 2523.0
-499.91602 693.5306 2560.0
-482.08176 688.65424 2542.0
-471.07468 693.5306 2560.0
-456.65405 693.5306 2560.0
-442.23343 693.5306 2560.0
-431.155 698.94885 2580.0
-416.62177 698.94885 2580.0
-405.04947 704.0961 2599.0
-390.40918 704.0961 2599.0
-378.66052 709.51434 2619.0
-363.90747 709.51434 2619.0
-351.82077 714.9325 2639.0
-336.95505 714.9325 2639.0
-322.08945 714.9325 2639.0
-309.55215 720.3507 2659.0
-294.57376 720.3507 2659.0
-279.5955 720.3507 2659.0
-268.7968 731.729 2701.0
-251.61038 726.0399 2680.0
-77.29321 271.99405 1004.0
-71.20947 270.3686 998.0
-65.39053 269.55585 995.0
-59.485214 268.2013 990.0
-53.745094 267.38855 987.0
-47.64825 264.40857 976.0
-42.150356 264.40857 976.0
-36.539833 263.59583 973.0
-31.058872 263.59583 973.0
-24.86811 256.28125 946.0
-19.497934 255.73941 944.0
-14.135232 254.9267 941.0
-8.834528 254.9267 941.0
-3.5338247 254.9267 941.0
1.7574904 253.57214 936.0
7.0526285 254.38487 939.0
12.368354 254.9267 941.0
17.762941 256.28125 946.0
23.16504 257.09396 949.0
28.42068 256.28125 946.0
33.571236 254.9267 941.0
38.871937 254.9267 941.0
44.31347 255.73941 944.0
50.051674 257.9067 952.0
55.705383 259.26126 957.0
61.22397 259.80307 959.0
66.83449 260.6158 962.0
72.70413 262.24127 968.0
78.318405 262.78308 970.0
439.89383 773.991 2857.0
455.9875 773.991 2857.0
468.28064 767.7601 2834.0
476.3847 755.29816 2788.0
492.0899 755.29816 2788.0
269.0147 400.13464 1477.0
277.33472 400.13464 1477.0
285.65472 400.13464 1477.0
292.5815 398.2383 1470.0
300.8622 398.2383 1470.0
309.14282 398.2383 1470.0
317.4234 398.2383 1470.0
324.37457 396.61282 1464.0
332.62137 396.61282 1464.0
340.86826 396.61282 1464.0
347.68427 394.98737 1458.0
344.18045 381.98367 1410.0
349.376 379.00363 1399.0
357.25665 379.00363 1399.0
363.57138 377.3782 1393.0
368.4853 374.39816 1382.0
374.6366 372.7727 1376.0
380.99817 371.41815 1371.0
382.76694 365.72906 1350.0
385.74503 361.39447 1334.0
391.78552 360.03992 1329.0
399.27185 360.03992 1329.0
406.7582 360.03992 1329.0
412.68604 358.68536 1324.0
421.73093 360.03992 1329.0
429.2173 360.03992 1329.0
433.41763 357.3308 1319.0
430.8208 349.2035 1289.0
436.38248 347.84894 1284.0
443.61542 347.84894 1284.0
450.84827 347.84894 1284.0
461.6487 350.55804 1294.0
470.74985 351.9126 1299.0
478.0672 351.9126 1299.0
485.3846 351.9126 1299.0
488.90903 349.2035 1289.0
494.2454 347.84894 1284.0
496.01044 344.05618 1270.0
497.61768 340.26346 1256.0
501.07648 337.82526 1247.0
508.10086 337.82526 1247.0
517.19073 339.1798 1252.0
522.1497 337.82526 1247.0
527.47675 336.74164 1243.0
532.32874 335.3871 1238.0
537.55994 334.30344 1234.0
546.2762 335.3871 1238.0
557.2719 337.82526 1247.0
564.2963 337.82526 1247.0
838.80133 472.73862 1745.0
848.63116 472.73862 1745.0
862.8884 475.17682 1754.0
877.2471 477.61505 1763.0
891.70715 480.05325 1772.0
906.2686 482.49146 1781.0
920.9316 484.9296 1790.0
936.21594 487.6387 1800.0
951.0872 490.0769 1809.0
966.5913 492.786 1819.0
981.67096 495.2242 1828.0
991.9683 495.2242 1828.0
1007.7484 497.93332 1838.0
1029.1803 503.35153 1858.0
1045.2421 506.06064 1868.0
1055.7645 506.06064 1868.0
1077.7036 511.47882 1888.0
1094.6798 514.45886 1899.0
1111.1978 517.16797 1909.0
1121.9513 517.16797 1909.0
1145.7585 523.128 1931.0
1162.6259 525.8371 1941.0
-1230.4066 558.9163 2107.0
-1211.5978 555.73315 2095.0
-1206.669 558.9163 2107.0
-1202.1719 562.3648 2120.0
-1190.2297 562.3648 2120.0
-1185.513 565.81323 2133.0
-1181.1998 569.527 2147.0
-1169.1057 569.527 2147.0
-1157.0116 569.527 2147.0
-1151.8497 572.97546 2160.0
-1139.6824 572.97546 2160.0
-1134.8229 576.6892 2174.0
-1122.5765 576.6892 2174.0
-1124.1201 583.8514 2201.0
-1118.7931 587.5651 2215.0
-1099.3234 583.8514 2201.0
-1086.9248 583.8514 2201.0
-1081.3613 587.5651 2215.0
-1076.1226 591.5441 2230.0
-1063.5608 591.5441 2230.0
-1057.5973 595.2578 2244.0
-1044.9567 595.2578 2244.0
-1039.2166 599.2368 2259.0
-1026.4915 599.2368 2259.0
-1013.7663 599.2368 2259.0
-1007.68835 603.2158 2274.0
-988.31616 599.2368 2259.0
-975.59106 599.2368 2259.0
-969.2595 603.2158 2274.0
-962.7589 607.1948 2289.0
-949.86487 607.1948 2289.0
-943.1108 611.1738 2304.0
-930.1322 611.1738 2304.0
-923.5227 615.4181 2320.0
-910.45404 615.4181 2320.0
-897.3853 615.4181 2320.0
-890.0341 619.3971 2335.0
-882.8895 623.6413 2351.0
-869.64624 623.6413 2351.0
-856.40283 623.6413 2351.0
-843.15955 623.6413 2351.0
-835.5642 627.88556 2367.0
-822.2308 627.88556 2367.0
-808.89734 627.88556 2367.0
-801.2776 632.39514 2384.0
-787.84845 632.39514 2384.0
-779.61664 636.6394 2400.0
-766.0973 636.6394 2400.0
-752.5779 636.6394 2400.0
-739.05853 636.6394 2400.0
-725.5392 636.6394 2400.0
-712.0198 636.6394 2400.0
-698.5004 636.6394 2400.0
-694.685 645.65845 2434.0
-680.97406 645.65845 2434.0
-671.92365 650.16797 2451.0
-658.11694 650.16797 2451.0
-644.3103 650.16797 2451.0
-635.1341 654.9428 2469.0
-621.22595 654.9428 2469.0
-607.318 654.9428 2469.0
-597.7361 659.7175 2487.0
-587.9515 664.4924 2505.0
-573.8407 664.4924 2505.0
-563.75183 669.26715 2523.0
-545.61896 664.4924 2505.0
-531.5081 664.4924 2505.0
-521.1151 669.26715 2523.0
-510.72028 674.3072 2542.0
-499.91602 679.08203 2560.0
-485.49536 679.08203 2560.0
-471.07468 679.08203 2560.0
-456.65405 679.08203 2560.0
-442.23343 679.08203 2560.0
-431.155 684.3873 2580.0
-419.68988 689.4274 2599.0
-405.04947 689.4274 2599.0
-390.40918 689.4274 2599.0
-378.66052 694.7327 2619.0
-366.68643 700.0381 2639.0
-351.82077 700.0381 2639.0
-336.95505 700.0381 2639.0
-324.53043 705.3434 2659.0
-309.55215 705.3434 2659.0
-294.57376 705.3434 2659.0
-279.5955 705.3434 2659.0
-266.70697 710.91394 2680.0
-251.61038 710.91394 2680.0
-77.52416 267.1233 1007.0
-71.42354 265.53168 1001.0
-65.58769 264.73587 998.0
-59.665474 263.40955 993.0
-53.581738 261.02216 984.0
-47.74589 259.43054 978.0
-42.150356 258.90002 976.0
-36.652496 258.90002 976.0
-31.058872 258.10422 973.0
-19.229424 246.96303 931.0
-14.060125 248.28935 936.0
-8.862694 250.41148 944.0
-3.5526016 250.94202 946.0
1.7725117 250.41148 944.0
7.0901823 250.41148 944.0
12.473504 251.73782 949.0
17.819271 251.73782 949.0
23.16504 251.73782 949.0
28.42068 250.94202 946.0
33.285828 247.49355 933.0
38.541466 247.49355 933.0
43.797104 247.49355 933.0
49.052742 247.49355 933.0
55.99642 255.1863 962.0
61.607014 255.9821 965.0
66.83449 255.1863 962.0
72.478806 255.9821 965.0
78.318405 257.30844 970.0
455.9875 757.86615 2857.0
464.315 745.3986 2810.0
480.14386 745.3986 2810.0
492.0899 739.56274 2788.0
507.79483 739.56274 2788.0
278.46133 393.39008 1483.0
284.30093 389.94162 1470.0
292.5815 389.94162 1470.0
300.8622 389.94162 1470.0
309.14282 389.94162 1470.0
317.4234 389.94162 1470.0
324.37457 388.35004 1464.0
332.62137 388.35004 1464.0
340.86826 388.35004 1464.0
347.68427 386.75842 1458.0
342.71585 372.43405 1404.0
349.376 371.10773 1399.0
355.7245 369.5161 1393.0
362.2664 368.18976 1388.0
368.4853 366.59818 1382.0
374.6366 365.0066 1376.0
380.99817 363.68024 1371.0
381.06577 356.51807 1344.0
385.74503 353.8654 1334.0
391.78552 352.53906 1329.0
399.27185 352.53906 1329.0
406.7582 352.53906 1329.0
414.24454 352.53906 1329.0
421.73093 352.53906 1329.0
430.8321 353.8654 1334.0
435.06064 351.21274 1324.0
430.8208 341.9284 1289.0
436.38248 340.60208 1284.0
443.61542 340.60208 1284.0
450.84827 340.60208 1284.0
463.43253 344.5811 1299.0
470.74985 344.5811 1299.0
478.0672 344.5811 1299.0
483.5163 343.25473 1294.0
490.80548 343.25473 1294.0
494.2454 340.60208 1284.0
496.01044 336.88837 1270.0
499.59863 334.50095 1261.0
503.0856 332.11356 1252.0
508.10086 330.78723 1247.0
515.1253 330.78723 1247.0
522.1497 330.78723 1247.0
527.47675 329.72614 1243.0
532.32874 328.3998 1238.0
539.3024 328.3998 1238.0
546.2762 328.3998 1238.0
555.4843 329.72614 1243.0
566.5589 332.11356 1252.0
579.5676 335.562 1265.0
830.62964 458.38034 1728.0
848.63116 462.8899 1745.0
862.8884 465.27728 1754.0
872.7688 465.27728 1754.0
882.6492 465.27728 1754.0
910.84827 474.8269 1790.0
920.9316 474.8269 1790.0
931.0147 474.8269 1790.0
946.35547 477.47955 1800.0
966.5913 482.51962 1819.0
981.67096 484.90698 1828.0
991.9683 484.90698 1828.0
1013.23126 490.2123 1848.0
1029.1803 492.865 1858.0
1039.6465 492.865 1858.0
1055.7645 495.51764 1868.0
1077.7036 500.82297 1888.0
1094.6798 503.74094 1899.0
1111.1978 506.3936 1909.0
1128.4163 509.31152 1920.0
1151.692 514.8821 1941.0
1162.6259 514.8821 1941.0
-1215.8076 540.53394 2082.0
-1211.5978 543.90906 2095.0
-1206.669 547.02454 2107.0
-1202.1719 550.3996 2120.0
-1190.2297 550.3996 2120.0
-1185.513 553.77466 2133.0
-1181.1998 557.4094 2147.0
-1169.1057 557.4094 2147.0
-1164.0172 560.7845 2160.0
-1151.8497 560.7845 2160.0
-1147.0692 564.4192 2174.0
-1134.8229 564.4192 2174.0
-1129.2893 567.7943 2187.0
-1124.1201 571.429 2201.0
-1118.7931 575.0637 2215.0
-1106.3158 575.0637 2215.0
-1093.8385 575.0637 2215.0
-1081.3613 575.0637 2215.0
-1082.8785 582.5928 2244.0
-1070.2378 582.5928 2244.0
-1057.5973 582.5928 2244.0
-1044.9567 582.5928 2244.0
-1039.2166 586.4871 2259.0
-1033.3075 590.3814 2274.0
-1020.49786 590.3814 2274.0
-1007.68835 590.3814 2274.0
-988.31616 586.4871 2259.0
-975.59106 586.4871 2259.0
-969.2595 590.3814 2274.0
-956.4498 590.3814 2274.0
-943.6403 590.3814 2274.0
-936.9707 594.27576 2289.0
-930.1322 598.1701 2304.0
-917.1536 598.1701 2304.0
-910.45404 602.3241 2320.0
-903.1874 606.21844 2335.0
-890.0341 606.21844 2335.0
-876.8809 606.21844 2335.0
-863.7277 606.21844 2335.0
-856.40283 610.3724 2351.0
-843.15955 610.3724 2351.0
-835.5642 614.52637 2367.0
-822.2308 614.52637 2367.0
-814.7069 618.9399 2384.0
-801.2776 618.9399 2384.0
-787.84845 618.9399 2384.0
-774.4192 618.9399 2384.0
-766.0973 623.0939 2400.0
-747.5607 618.9399 2384.0
-739.05853 623.0939 2400.0
-725.5392 623.0939 2400.0
-717.06323 627.5075 2417.0
-698.5004 623.0939 2400.0
-694.685 631.921 2434.0
-680.97406 631.921 2434.0
-671.92365 636.3346 2451.0
-658.11694 636.3346 2451.0
-644.3103 636.3346 2451.0
-635.1341 641.0078 2469.0
-621.22595 641.0078 2469.0
-611.7456 645.681 2487.0
-602.06226 650.35425 2505.0
-587.9515 650.35425 2505.0
-573.8407 650.35425 2505.0
-563.75183 655.02747 2523.0
-545.61896 650.35425 2505.0
-531.5081 650.35425 2505.0
-521.1151 655.02747 2523.0
-506.90292 655.02747 2523.0
-496.40097 659.96027 2542.0
-482.08176 659.96027 2542.0
-471.07468 664.6335 2560.0
-456.65405 664.6335 2560.0
-445.6884 669.8259 2580.0
-431.155 669.8259 2580.0
-416.62177 669.8259 2580.0
-402.08835 669.8259 2580.0
-387.55508 669.8259 2580.0
-378.66052 679.9512 2619.0
-366.68643 685.1436 2639.0
-351.82077 685.1436 2639.0
-336.95505 685.1436 2639.0
-322.08945 685.1436 2639.0
-309.55215 690.33606 2659.0
-294.57376 690.33606 2659.0
-279.5955 690.33606 2659.0
-268.7968 701.24023 2701.0
-253.58195 701.24023 2701.0
-84.43593 265.33414 1022.0
-77.52416 261.4398 1007.0
-71.85165 261.4398 1007.0
-65.982 260.66095 1004.0
-59.785645 258.32434 995.0
-53.581738 255.46849 984.0
-47.892353 254.68964 981.0
-42.23673 253.91075 978.0
-36.539833 252.61264 973.0
-30.803507 250.53568 965.0
-19.869715 249.75679 962.0
-14.135232 244.30473 941.0
-8.881471 245.60284 946.0
-3.563868 246.3817 949.0
1.776267 245.60284 946.0
7.105203 245.60284 946.0
12.473504 246.3817 949.0
17.819271 246.3817 949.0
23.16504 246.3817 949.0
28.210379 243.78548 939.0
33.214474 241.70851 931.0
38.33492 240.92963 928.0
43.46851 240.4104 926.0
48.684715 240.4104 926.0
61.79854 251.31453 968.0
67.251335 251.31453 968.0
73.079666 252.61264 973.0
78.56063 252.61264 973.0
455.9875 741.7414 2857.0
468.28064 735.77 2834.0
480.14386 729.5391 2810.0
495.97293 729.5391 2810.0
507.79483 723.8274 2788.0
278.46133 385.02008 1483.0
284.30093 381.64502 1470.0
292.5815 381.64502 1470.0
300.8622 381.64502 1470.0
309.14282 381.64502 1470.0
317.4234 381.64502 1470.0
324.37457 380.08728 1464.0
332.62137 380.08728 1464.0
340.86826 380.08728 1464.0
347.68427 378.52954 1458.0
342.71585 364.50992 1404.0
349.376 363.21182 1399.0
355.7245 361.65408 1393.0
362.2664 360.35596 1388.0
368.4853 358.79822 1382.0
373.27527 355.94238 1371.0
