ply
format ascii 1.0
element vertex 1694
property float x
property float y
property float z
end_header
304.77905 0.0 1309.0
313.34506 0.0 1314.0
319.5264 0.0 1309.0
326.90005 0.0 1309.0
332.99692 0.0 1304.0
341.6475 0.0 1309.0
349.02115 0.0 1309.0
357.75616 0.0 1314.0
365.158 0.0 1314.0
372.5598 0.0 1314.0
379.96173 0.0 1314.0
388.83755 0.0 1319.0
394.7654 0.0 1314.0
402.16724 0.0 1314.0
409.5691 0.0 1314.0
416.971 0.0 1314.0
425.98764 0.0 1319.0
433.41763 0.0 1319.0
440.84766 0.0 1319.0
448.27765 0.0 1319.0
455.70773 0.0 1319.0
464.89337 0.0 1324.0
472.35153 0.0 1324.0
479.8097 0.0 1324.0
487.26788 0.0 1324.0
496.59442 0.0 1329.0
502.18427 0.0 1324.0
511.56708 0.0 1329.0
519.0534 0.0 1329.0
526.53973 0.0 1329.0
534.0261 0.0 1329.0
541.5125 0.0 1329.0
548.99884 0.0 1329.0
558.5788 0.0 1334.0
566.09326 0.0 1334.0
573.60785 0.0 1334.0
581.1223 0.0 1334.0
588.63684 0.0 1334.0
596.1513 0.0 1334.0
601.4032 0.0 1329.0
608.88965 0.0 1329.0
616.376 0.0 1329.0
626.2094 0.0 1334.0
631.34863 0.0 1329.0
638.83496 0.0 1329.0
646.32135 0.0 1329.0
653.8077 0.0 1329.0
663.782 0.0 1334.0
671.29645 0.0 1334.0
678.811 0.0 1334.0
686.32556 0.0 1334.0
693.84 0.0 1334.0
701.35455 0.0 1334.0
708.869 0.0 1334.0
716.38354 0.0 1334.0
723.8981 0.0 1334.0
731.4126 0.0 1334.0
738.9271 0.0 1334.0
746.4416 0.0 1334.0
748.30426 0.0 1324.0
755.7625 0.0 1324.0
763.22064 0.0 1324.0
773.58923 0.0 1329.0
781.07556 0.0 1329.0
791.5286 0.0 1334.0
799.0432 0.0 1334.0
-738.7112 -7.1396446 1265.0
-731.5853 -7.1396446 1265.0
-727.323 -7.167865 1270.0
-720.169 -7.167865 1270.0
-713.01495 -7.167865 1270.0
-708.63995 -7.196085 1275.0
-701.4578 -7.196085 1275.0
-694.27563 -7.196085 1275.0
-684.399 -7.167865 1270.0
-677.245 -7.167865 1270.0
-670.091 -7.167865 1270.0
-665.547 -7.196085 1275.0
-658.3648 -7.196085 1275.0
-651.1827 -7.196085 1275.0
-646.526 -7.2243047 1280.0
-636.81836 -7.196085 1275.0
-632.10535 -7.2243047 1280.0
-624.895 -7.2243047 1280.0
-617.6847 -7.2243047 1280.0
-612.3821 -7.24688 1284.0
-605.14923 -7.24688 1284.0
-596.0537 -7.2243047 1280.0
-590.68353 -7.24688 1284.0
-585.72266 -7.2751007 1289.0
-578.4616 -7.2751007 1289.0
-568.9849 -7.24688 1284.0
-561.7521 -7.24688 1284.0
-554.5192 -7.24688 1284.0
-545.5814 -7.2243047 1280.0
-540.05347 -7.24688 1284.0
-532.8207 -7.24688 1284.0
-527.63446 -7.2751007 1289.0
-520.3734 -7.2751007 1289.0
-513.1124 -7.2751007 1289.0
-503.8892 -7.24688 1284.0
-496.65634 -7.24688 1284.0
-491.3293 -7.2751007 1289.0
-484.06833 -7.2751007 1289.0
-478.65683 -7.3033204 1294.0
-469.54626 -7.2751007 1289.0
-462.28525 -7.2751007 1289.0
-455.0242 -7.2751007 1289.0
-447.76318 -7.2751007 1289.0
-440.5022 -7.2751007 1289.0
-433.24115 -7.2751007 1289.0
-425.98013 -7.2751007 1289.0
-420.3433 -7.3033204 1294.0
-411.45807 -7.2751007 1289.0
-404.19705 -7.2751007 1289.0
-396.936 -7.2751007 1289.0
-389.675 -7.2751007 1289.0
-382.41397 -7.2751007 1289.0
-375.15295 -7.2751007 1289.0
-367.89194 -7.2751007 1289.0
-360.6309 -7.2751007 1289.0
-354.7406 -7.3033204 1294.0
-347.4514 -7.3033204 1294.0
-338.8478 -7.2751007 1289.0
-331.58682 -7.2751007 1289.0
-325.58383 -7.3033204 1294.0
-317.06476 -7.2751007 1289.0
-309.8037 -7.2751007 1289.0
-302.5427 -7.2751007 1289.0
-295.28168 -7.2751007 1289.0
-288.02063 -7.2751007 1289.0
-280.75964 -7.2751007 1289.0
-273.4986 -7.2751007 1289.0
-266.23758 -7.2751007 1289.0
-258.97656 -7.2751007 1289.0
-251.71552 -7.2751007 1289.0
-244.45451 -7.2751007 1289.0
-237.19347 -7.2751007 1289.0
-229.04054 -7.24688 1284.0
-222.67145 -7.2751007 1289.0
-216.24597 -7.3033204 1294.0
-155.82944 -5.4464483 965.0
-149.92596 -5.4295163 962.0
-144.50697 -5.4295163 962.0
-139.52173 -5.4464483 965.0
-134.08578 -5.4464483 965.0
-155.61351 -7.196085 1275.0
-149.01344 -7.2243047 1280.0
-141.80309 -7.2243047 1280.0
-135.01338 -7.24688 1284.0
-127.38243 -7.2243047 1280.0
-120.54765 -7.24688 1284.0
-113.31481 -7.24688 1284.0
-105.75146 -7.2243047 1280.0
-98.541145 -7.2243047 1280.0
-91.6162 -7.24688 1284.0
-84.38336 -7.24688 1284.0
-77.45094 -7.2751007 1289.0
-70.189896 -7.2751007 1289.0
-62.92889 -7.2751007 1289.0
-55.451904 -7.24688 1284.0
-48.219063 -7.24688 1284.0
-40.98622 -7.24688 1284.0
-33.753334 -7.24688 1284.0
-26.520494 -7.24688 1284.0
-19.362713 -7.2751007 1289.0
-12.054766 -7.24688 1284.0
-4.821924 -7.24688 1284.0
2.4109163 -7.24688 1284.0
9.681404 -7.2751007 1289.0
16.94241 -7.2751007 1289.0
24.203415 -7.2751007 1289.0
31.464422 -7.2751007 1289.0
38.725426 -7.2751007 1289.0
46.16491 -7.3033204 1294.0
53.45408 -7.3033204 1294.0
60.74325 -7.3033204 1294.0
68.032425 -7.3033204 1294.0
75.61263 -7.3315406 1299.0
82.93007 -7.3315406 1299.0
90.2474 -7.3315406 1299.0
97.56474 -7.3315406 1299.0
104.88208 -7.3315406 1299.0
112.19941 -7.3315406 1299.0
119.516846 -7.3315406 1299.0
126.834175 -7.3315406 1299.0
134.15152 -7.3315406 1299.0
141.46886 -7.3315406 1299.0
148.7862 -7.3315406 1299.0
156.1036 -7.3315406 1299.0
163.42096 -7.3315406 1299.0
170.7383 -7.3315406 1299.0
178.05563 -7.3315406 1299.0
185.37297 -7.3315406 1299.0
192.69038 -7.3315406 1299.0
200.00774 -7.3315406 1299.0
207.32507 -7.3315406 1299.0
214.64241 -7.3315406 1299.0
221.95975 -7.3315406 1299.0
229.27716 -7.3315406 1299.0
236.59451 -7.3315406 1299.0
243.91185 -7.3315406 1299.0
251.22919 -7.3315406 1299.0
258.54654 -7.3315406 1299.0
265.86395 -7.3315406 1299.0
274.2328 -7.3597603 1304.0
281.5783 -7.3597603 1304.0
288.9238 -7.3597603 1304.0
297.4053 -7.38798 1309.0
305.94324 -7.4162 1314.0
313.34506 -7.4162 1314.0
320.7469 -7.4162 1314.0
328.14874 -7.4162 1314.0
334.27374 -7.38798 1309.0
341.6475 -7.38798 1309.0
347.688 -7.3597603 1304.0
356.39484 -7.38798 1309.0
363.7685 -7.38798 1309.0
372.5598 -7.4162 1314.0
379.96173 -7.4162 1314.0
388.83755 -7.44442 1319.0
394.7654 -7.4162 1314.0
402.16724 -7.4162 1314.0
409.5691 -7.4162 1314.0
416.971 -7.4162 1314.0
424.37283 -7.4162 1314.0
431.77466 -7.4162 1314.0
440.84766 -7.44442 1319.0
448.27765 -7.44442 1319.0
455.70773 -7.44442 1319.0
464.89337 -7.4726405 1324.0
474.13535 -7.50086 1329.0
479.8097 -7.4726405 1324.0
487.26788 -7.4726405 1324.0
496.59442 -7.50086 1329.0
502.18427 -7.4726405 1324.0
511.56708 -7.50086 1329.0
517.1006 -7.4726405 1324.0
526.53973 -7.50086 1329.0
534.0261 -7.50086 1329.0
541.5125 -7.50086 1329.0
546.93335 -7.4726405 1324.0
556.48517 -7.50086 1329.0
566.09326 -7.52908 1334.0
573.60785 -7.52908 1334.0
581.1223 -7.52908 1334.0
586.43054 -7.50086 1329.0
596.1513 -7.52908 1334.0
601.4032 -7.50086 1329.0
608.88965 -7.50086 1329.0
616.376 -7.50086 1329.0
623.8623 -7.50086 1329.0
631.34863 -7.50086 1329.0
641.2384 -7.52908 1334.0
648.753 -7.52908 1334.0
653.8077 -7.50086 1329.0
663.782 -7.52908 1334.0
668.78033 -7.50086 1329.0
678.811 -7.52908 1334.0
686.32556 -7.52908 1334.0
691.23944 -7.50086 1329.0
701.35455 -7.52908 1334.0
708.869 -7.52908 1334.0
716.38354 -7.52908 1334.0
723.8981 -7.52908 1334.0
728.67114 -7.50086 1329.0
736.15753 -7.50086 1329.0
746.4416 -7.52908 1334.0
751.1302 -7.50086 1329.0
758.6166 -7.50086 1329.0
766.1029 -7.50086 1329.0
776.49963 -7.52908 1334.0
784.01416 -7.52908 1334.0
791.5286 -7.52908 1334.0
802.03815 -7.5573 1339.0
-741.631 -14.335661 1270.0
-734.477 -14.335661 1270.0
-727.323 -14.335661 1270.0
-720.169 -14.335661 1270.0
-713.01495 -14.335661 1270.0
-708.63995 -14.3921 1275.0
-701.4578 -14.3921 1275.0
-691.553 -14.335661 1270.0
-684.399 -14.335661 1270.0
-677.245 -14.335661 1270.0
-670.091 -14.335661 1270.0
-665.547 -14.3921 1275.0
-658.3648 -14.3921 1275.0
-651.1827 -14.3921 1275.0
-646.526 -14.448541 1280.0
-639.3157 -14.448541 1280.0
-632.10535 -14.448541 1280.0
-624.895 -14.448541 1280.0
-617.6847 -14.448541 1280.0
-610.47437 -14.448541 1280.0
-603.26404 -14.448541 1280.0
-596.0537 -14.448541 1280.0
-590.68353 -14.493691 1284.0
-585.72266 -14.550131 1289.0
-578.4616 -14.550131 1289.0
-568.9849 -14.493691 1284.0
-561.7521 -14.493691 1284.0
-552.79175 -14.448541 1280.0
-545.5814 -14.448541 1280.0
-540.05347 -14.493691 1284.0
-532.8207 -14.493691 1284.0
-527.63446 -14.550131 1289.0
-520.3734 -14.550131 1289.0
-511.12207 -14.493691 1284.0
-503.8892 -14.493691 1284.0
-496.65634 -14.493691 1284.0
-489.42346 -14.493691 1284.0
-482.1906 -14.493691 1284.0
-476.8073 -14.550131 1289.0
-471.3676 -14.60657 1294.0
-462.28525 -14.550131 1289.0
-455.0242 -14.550131 1289.0
-447.76318 -14.550131 1289.0
-440.5022 -14.550131 1289.0
-433.24115 -14.550131 1289.0
-425.98013 -14.550131 1289.0
-418.7191 -14.550131 1289.0
-411.45807 -14.550131 1289.0
-404.19705 -14.550131 1289.0
-396.936 -14.550131 1289.0
-389.675 -14.550131 1289.0
-382.41397 -14.550131 1289.0
-375.15295 -14.550131 1289.0
-367.89194 -14.550131 1289.0
-360.6309 -14.550131 1289.0
-354.7406 -14.60657 1294.0
-347.4514 -14.60657 1294.0
-340.1622 -14.60657 1294.0
-332.87302 -14.60657 1294.0
-325.58383 -14.60657 1294.0
-318.29465 -14.60657 1294.0
-309.8037 -14.550131 1289.0
-302.5427 -14.550131 1289.0
-295.28168 -14.550131 1289.0
-288.02063 -14.550131 1289.0
-280.75964 -14.550131 1289.0
-273.4986 -14.550131 1289.0
-266.23758 -14.550131 1289.0
-258.97656 -14.550131 1289.0
-251.71552 -14.550131 1289.0
-244.45451 -14.550131 1289.0
-236.27339 -14.493691 1284.0
-229.04054 -14.493691 1284.0
-222.67145 -14.550131 1289.0
-160.764 -10.858981 962.0
-155.345 -10.858981 962.0
-150.39351 -10.892845 965.0
-144.50697 -10.858981 962.0
-139.52173 -10.892845 965.0
-133.66895 -10.858981 962.0
-156.71196 -14.493691 1284.0
-149.47911 -14.493691 1284.0
-127.38243 -14.448541 1280.0
-120.54765 -14.493691 1284.0
-112.96181 -14.448541 1280.0
-105.75146 -14.448541 1280.0
-98.541145 -14.448541 1280.0
-91.6162 -14.493691 1284.0
-84.38336 -14.493691 1284.0
-77.45094 -14.550131 1289.0
-70.189896 -14.550131 1289.0
-62.92889 -14.550131 1289.0
-55.451904 -14.493691 1284.0
-48.219063 -14.493691 1284.0
-40.98622 -14.493691 1284.0
-33.753334 -14.493691 1284.0
-26.623768 -14.550131 1289.0
-19.362713 -14.550131 1289.0
-12.101707 -14.550131 1289.0
-4.840702 -14.550131 1289.0
2.4203048 -14.550131 1289.0
9.681404 -14.550131 1289.0
16.94241 -14.550131 1289.0
24.203415 -14.550131 1289.0
31.464422 -14.550131 1289.0
38.725426 -14.550131 1289.0
46.16491 -14.60657 1294.0
53.45408 -14.60657 1294.0
60.74325 -14.60657 1294.0
68.032425 -14.60657 1294.0
75.61263 -14.663011 1299.0
82.93007 -14.663011 1299.0
90.2474 -14.663011 1299.0
97.56474 -14.663011 1299.0
104.88208 -14.663011 1299.0
112.19941 -14.663011 1299.0
119.516846 -14.663011 1299.0
126.34598 -14.60657 1294.0
134.15152 -14.663011 1299.0
141.46886 -14.663011 1299.0
148.7862 -14.663011 1299.0
156.1036 -14.663011 1299.0
163.42096 -14.663011 1299.0
170.7383 -14.663011 1299.0
178.741 -14.71945 1304.0
185.37297 -14.663011 1299.0
192.69038 -14.663011 1299.0
200.00774 -14.663011 1299.0
208.1231 -14.71945 1304.0
214.64241 -14.663011 1299.0
222.8141 -14.71945 1304.0
230.15968 -14.71945 1304.0
237.50519 -14.71945 1304.0
244.8507 -14.71945 1304.0
252.1962 -14.71945 1304.0
259.54172 -14.71945 1304.0
266.8873 -14.71945 1304.0
274.2328 -14.71945 1304.0
281.5783 -14.71945 1304.0
288.9238 -14.71945 1304.0
297.4053 -14.775889 1309.0
304.77905 -14.775889 1309.0
312.15274 -14.775889 1309.0
320.7469 -14.83233 1314.0
328.14874 -14.83233 1314.0
334.27374 -14.775889 1309.0
341.6475 -14.775889 1309.0
347.688 -14.71945 1304.0
356.39484 -14.775889 1309.0
363.7685 -14.775889 1309.0
372.5598 -14.83233 1314.0
379.96173 -14.83233 1314.0
388.83755 -14.888769 1319.0
396.26758 -14.888769 1319.0
402.16724 -14.83233 1314.0
411.12756 -14.888769 1319.0
416.971 -14.83233 1314.0
424.37283 -14.83233 1314.0
433.41763 -14.888769 1319.0
440.84766 -14.888769 1319.0
448.27765 -14.888769 1319.0
455.70773 -14.888769 1319.0
464.89337 -14.945209 1324.0
474.13535 -15.001648 1329.0
481.62167 -15.001648 1329.0
487.26788 -14.945209 1324.0
494.7261 -14.945209 1324.0
502.18427 -14.945209 1324.0
509.64246 -14.945209 1324.0
517.1006 -14.945209 1324.0
526.53973 -15.001648 1329.0
534.0261 -15.001648 1329.0
539.4752 -14.945209 1324.0
546.93335 -14.945209 1324.0
556.48517 -15.001648 1329.0
566.09326 -15.058088 1334.0
573.60785 -15.058088 1334.0
578.9442 -15.001648 1329.0
588.63684 -15.058088 1334.0
596.1513 -15.058088 1334.0
603.66583 -15.058088 1334.0
608.88965 -15.001648 1329.0
616.376 -15.001648 1329.0
623.8623 -15.001648 1329.0
631.34863 -15.001648 1329.0
641.2384 -15.058088 1334.0
648.753 -15.058088 1334.0
653.8077 -15.001648 1329.0
663.782 -15.058088 1334.0
666.2643 -14.945209 1324.0
676.2667 -15.001648 1329.0
686.32556 -15.058088 1334.0
693.84 -15.058088 1334.0
701.35455 -15.058088 1334.0
708.869 -15.058088 1334.0
716.38354 -15.058088 1334.0
723.8981 -15.058088 1334.0
731.4126 -15.058088 1334.0
736.15753 -15.001648 1329.0
743.64386 -15.001648 1329.0
751.1302 -15.001648 1329.0
761.47064 -15.058088 1334.0
768.98517 -15.058088 1334.0
776.49963 -15.058088 1334.0
786.95276 -15.114528 1339.0
794.4954 -15.114528 1339.0
802.03815 -15.114528 1339.0
-744.5508 -21.588186 1275.0
-737.3686 -21.588186 1275.0
-730.18646 -21.588186 1275.0
-720.169 -21.503527 1270.0
-713.01495 -21.503527 1270.0
-705.86096 -21.503527 1270.0
-701.4578 -21.588186 1275.0
-694.27563 -21.588186 1275.0
-684.399 -21.503527 1270.0
-679.9113 -21.588186 1275.0
-670.091 -21.503527 1270.0
-665.547 -21.588186 1275.0
-658.3648 -21.588186 1275.0
-651.1827 -21.588186 1275.0
-646.526 -21.672844 1280.0
-639.3157 -21.672844 1280.0
-632.10535 -21.672844 1280.0
-622.45404 -21.588186 1275.0
-617.6847 -21.672844 1280.0
-610.47437 -21.672844 1280.0
-603.26404 -21.672844 1280.0
-597.9164 -21.740574 1284.0
-590.68353 -21.740574 1284.0
-583.4507 -21.740574 1284.0
-576.2178 -21.740574 1284.0
-568.9849 -21.740574 1284.0
-561.7521 -21.740574 1284.0
-552.79175 -21.672844 1280.0
-547.2864 -21.740574 1284.0
-538.3711 -21.672844 1280.0
-532.8207 -21.740574 1284.0
-525.58777 -21.740574 1284.0
-518.3549 -21.740574 1284.0
-511.12207 -21.740574 1284.0
-503.8892 -21.740574 1284.0
-496.65634 -21.740574 1284.0
-489.42346 -21.740574 1284.0
-484.06833 -21.825233 1289.0
-476.8073 -21.825233 1289.0
-469.54626 -21.825233 1289.0
-464.07843 -21.909893 1294.0
-456.78925 -21.909893 1294.0
-447.76318 -21.825233 1289.0
-440.5022 -21.825233 1289.0
-433.24115 -21.825233 1289.0
-425.98013 -21.825233 1289.0
-418.7191 -21.825233 1289.0
-411.45807 -21.825233 1289.0
-404.19705 -21.825233 1289.0
-396.936 -21.825233 1289.0
-389.675 -21.825233 1289.0
-382.41397 -21.825233 1289.0
-376.60815 -21.909893 1294.0
-367.89194 -21.825233 1289.0
-362.02975 -21.909893 1294.0
-354.7406 -21.909893 1294.0
-346.10883 -21.825233 1289.0
-338.8478 -21.825233 1289.0
-332.87302 -21.909893 1294.0
-325.58383 -21.909893 1294.0
-318.29465 -21.909893 1294.0
-311.00543 -21.909893 1294.0
-302.5427 -21.825233 1289.0
-295.28168 -21.825233 1289.0
-288.02063 -21.825233 1289.0
-280.75964 -21.825233 1289.0
-273.4986 -21.825233 1289.0
-265.20483 -21.740574 1284.0
-258.97656 -21.825233 1289.0
-251.71552 -21.825233 1289.0
-244.45451 -21.825233 1289.0
-236.27339 -21.740574 1284.0
-229.04054 -21.740574 1284.0
-222.67145 -21.825233 1289.0
-159.42708 -16.153044 954.0
-154.86057 -16.237703 959.0
-149.92596 -16.288498 962.0
-144.95761 -16.339293 965.0
-139.52173 -16.339293 965.0
-133.25209 -16.237703 959.0
-128.24994 -16.288498 962.0
-127.38243 -21.672844 1280.0
-120.54765 -21.740574 1284.0
-113.31481 -21.740574 1284.0
-106.08193 -21.740574 1284.0
-98.84908 -21.740574 1284.0
-91.6162 -21.740574 1284.0
-84.38336 -21.740574 1284.0
-77.15051 -21.740574 1284.0
-69.91763 -21.740574 1284.0
-62.684788 -21.740574 1284.0
-55.451904 -21.740574 1284.0
-48.219063 -21.740574 1284.0
-41.145824 -21.825233 1289.0
-33.884773 -21.825233 1289.0
-26.623768 -21.825233 1289.0
-19.362713 -21.825233 1289.0
-12.101707 -21.825233 1289.0
-4.840702 -21.825233 1289.0
2.4203048 -21.825233 1289.0
9.681404 -21.825233 1289.0
16.94241 -21.825233 1289.0
24.203415 -21.825233 1289.0
31.464422 -21.825233 1289.0
38.725426 -21.825233 1289.0
46.16491 -21.909893 1294.0
53.45408 -21.909893 1294.0
60.74325 -21.909893 1294.0
68.032425 -21.909893 1294.0
75.321594 -21.909893 1294.0
82.61086 -21.909893 1294.0
90.2474 -21.99455 1299.0
97.56474 -21.99455 1299.0
104.88208 -21.99455 1299.0
112.19941 -21.99455 1299.0
119.516846 -21.99455 1299.0
126.34598 -21.909893 1294.0
134.15152 -21.99455 1299.0
141.46886 -21.99455 1299.0
148.7862 -21.99455 1299.0
156.1036 -21.99455 1299.0
163.42096 -21.99455 1299.0
170.7383 -21.99455 1299.0
178.741 -22.07921 1304.0
186.0865 -22.07921 1304.0
193.43208 -22.07921 1304.0
200.77759 -22.07921 1304.0
208.1231 -22.07921 1304.0
214.64241 -21.99455 1299.0
221.95975 -21.99455 1299.0
230.15968 -22.07921 1304.0
237.50519 -22.07921 1304.0
244.8507 -22.07921 1304.0
252.1962 -22.07921 1304.0
259.54172 -22.07921 1304.0
266.8873 -22.07921 1304.0
274.2328 -22.07921 1304.0
281.5783 -22.07921 1304.0
290.03165 -22.16387 1309.0
297.4053 -22.16387 1309.0
303.6149 -22.07921 1304.0
312.15274 -22.16387 1309.0
320.7469 -22.24853 1314.0
328.14874 -22.24853 1314.0
335.55057 -22.24853 1314.0
342.95248 -22.24853 1314.0
350.3543 -22.24853 1314.0
357.75616 -22.24853 1314.0
365.158 -22.24853 1314.0
372.5598 -22.24853 1314.0
381.40756 -22.333189 1319.0
387.3636 -22.24853 1314.0
396.26758 -22.333189 1319.0
402.16724 -22.24853 1314.0
411.12756 -22.333189 1319.0
418.55765 -22.333189 1319.0
425.98764 -22.333189 1319.0
433.41763 -22.333189 1319.0
440.84766 -22.333189 1319.0
448.27765 -22.333189 1319.0
455.70773 -22.333189 1319.0
463.13773 -22.333189 1319.0
474.13535 -22.502508 1329.0
481.62167 -22.502508 1329.0
489.108 -22.502508 1329.0
492.85782 -22.333189 1319.0
502.18427 -22.417849 1324.0
509.64246 -22.417849 1324.0
517.1006 -22.417849 1324.0
526.53973 -22.502508 1329.0
534.0261 -22.502508 1329.0
539.4752 -22.417849 1324.0
548.99884 -22.502508 1329.0
556.48517 -22.502508 1329.0
566.09326 -22.587168 1334.0
573.60785 -22.587168 1334.0
578.9442 -22.502508 1329.0
586.43054 -22.502508 1329.0
593.9169 -22.502508 1329.0
601.4032 -22.502508 1329.0
608.88965 -22.502508 1329.0
616.376 -22.502508 1329.0
623.8623 -22.502508 1329.0
633.7239 -22.587168 1334.0
641.2384 -22.587168 1334.0
648.753 -22.587168 1334.0
656.26746 -22.587168 1334.0
661.294 -22.502508 1329.0
666.2643 -22.417849 1324.0
676.2667 -22.502508 1329.0
686.32556 -22.587168 1334.0
693.84 -22.587168 1334.0
698.72577 -22.502508 1329.0
708.869 -22.587168 1334.0
716.38354 -22.587168 1334.0
723.8981 -22.587168 1334.0
728.67114 -22.502508 1329.0
736.15753 -22.502508 1329.0
746.4416 -22.587168 1334.0
753.9561 -22.587168 1334.0
761.47064 -22.587168 1334.0
768.98517 -22.587168 1334.0
776.49963 -22.587168 1334.0
784.01416 -22.587168 1334.0
791.5286 -22.587168 1334.0
799.0432 -22.587168 1334.0
-741.631 -28.671322 1270.0
-737.3686 -28.7842 1275.0
-730.18646 -28.7842 1275.0
-720.169 -28.671322 1270.0
-713.01495 -28.671322 1270.0
-708.63995 -28.7842 1275.0
-701.4578 -28.7842 1275.0
-691.553 -28.671322 1270.0
-687.0935 -28.7842 1275.0
-679.9113 -28.7842 1275.0
-672.7291 -28.7842 1275.0
-665.547 -28.7842 1275.0
-658.3648 -28.7842 1275.0
-653.7363 -28.897081 1280.0
-648.5463 -28.987383 1284.0
-641.3136 -28.987383 1284.0
-634.0807 -28.987383 1284.0
-626.84784 -28.987383 1284.0
-617.6847 -28.897081 1280.0
-612.3821 -28.987383 1284.0
-605.14923 -28.987383 1284.0
-597.9164 -28.987383 1284.0
-590.68353 -28.987383 1284.0
-581.63306 -28.897081 1280.0
-574.4227 -28.897081 1280.0
-568.9849 -28.987383 1284.0
-561.7521 -28.987383 1284.0
-554.5192 -28.987383 1284.0
-547.2864 -28.987383 1284.0
-538.3711 -28.897081 1280.0
-532.8207 -28.987383 1284.0
-525.58777 -28.987383 1284.0
-520.3734 -29.100262 1289.0
-511.12207 -28.987383 1284.0
-505.85138 -29.100262 1289.0
-498.59036 -29.100262 1289.0
-491.3293 -29.100262 1289.0
-484.06833 -29.100262 1289.0
-476.8073 -29.100262 1289.0
-469.54626 -29.100262 1289.0
-462.28525 -29.100262 1289.0
-455.0242 -29.100262 1289.0
-446.02634 -28.987383 1284.0
-438.7935 -28.987383 1284.0
-433.24115 -29.100262 1289.0
-425.98013 -29.100262 1289.0
-418.7191 -29.100262 1289.0
-411.45807 -29.100262 1289.0
-404.19705 -29.100262 1289.0
-396.936 -29.100262 1289.0
-389.675 -29.100262 1289.0
-383.89734 -29.21314 1294.0
-375.15295 -29.100262 1289.0
-367.89194 -29.100262 1289.0
-360.6309 -29.100262 1289.0
-353.36987 -29.100262 1289.0
-346.10883 -29.100262 1289.0
-340.1622 -29.21314 1294.0
-332.87302 -29.21314 1294.0
-325.58383 -29.21314 1294.0
-317.06476 -29.100262 1289.0
-309.8037 -29.100262 1289.0
-302.5427 -29.100262 1289.0
-295.28168 -29.100262 1289.0
-288.02063 -29.100262 1289.0
-280.75964 -29.100262 1289.0
-273.4986 -29.100262 1289.0
-265.20483 -28.987383 1284.0
-258.97656 -29.100262 1289.0
-251.71552 -29.100262 1289.0
-244.45451 -29.100262 1289.0
-237.19347 -29.100262 1289.0
-229.93245 -29.100262 1289.0
-163.93732 -21.424477 949.0
-159.09286 -21.492203 952.0
-154.05315 -21.537355 954.0
-149.92596 -21.717962 962.0
-144.95761 -21.78569 965.0
-139.52173 -21.78569 965.0
-133.66895 -21.717962 962.0
-128.24994 -21.717962 962.0
-127.38243 -28.897081 1280.0
-120.54765 -28.987383 1284.0
-113.31481 -28.987383 1284.0
-106.08193 -28.987383 1284.0
-98.84908 -28.987383 1284.0
-91.97297 -29.100262 1289.0
-84.38336 -28.987383 1284.0
-77.15051 -28.987383 1284.0
-69.69982 -28.897081 1280.0
-62.684788 -28.987383 1284.0
-55.451904 -28.987383 1284.0
-48.40683 -29.100262 1289.0
-40.98622 -28.987383 1284.0
-33.753334 -28.987383 1284.0
-26.520494 -28.987383 1284.0
-19.287605 -28.987383 1284.0
-12.054766 -28.987383 1284.0
-4.840702 -29.100262 1289.0
2.4203048 -29.100262 1289.0
9.643848 -28.987383 1284.0
16.94241 -29.100262 1289.0
24.203415 -29.100262 1289.0
31.464422 -29.100262 1289.0
38.725426 -29.100262 1289.0
46.16491 -29.21314 1294.0
53.45408 -29.21314 1294.0
60.74325 -29.21314 1294.0
68.032425 -29.21314 1294.0
75.321594 -29.21314 1294.0
82.61086 -29.21314 1294.0
89.900024 -29.21314 1294.0
97.56474 -29.326021 1299.0
104.88208 -29.326021 1299.0
112.19941 -29.326021 1299.0
119.516846 -29.326021 1299.0
126.34598 -29.21314 1294.0
133.63515 -29.21314 1294.0
141.46886 -29.326021 1299.0
148.7862 -29.326021 1299.0
156.1036 -29.326021 1299.0
163.42096 -29.326021 1299.0
170.7383 -29.326021 1299.0
178.05563 -29.326021 1299.0
185.37297 -29.326021 1299.0
192.69038 -29.326021 1299.0
200.00774 -29.326021 1299.0
207.32507 -29.326021 1299.0
214.64241 -29.326021 1299.0
221.95975 -29.326021 1299.0
229.27716 -29.326021 1299.0
236.59451 -29.326021 1299.0
243.91185 -29.326021 1299.0
252.1962 -29.4389 1304.0
259.54172 -29.4389 1304.0
266.8873 -29.4389 1304.0
274.2328 -29.4389 1304.0
281.5783 -29.4389 1304.0
290.03165 -29.551779 1309.0
296.26932 -29.4389 1304.0
303.6149 -29.4389 1304.0
312.15274 -29.551779 1309.0
319.5264 -29.551779 1309.0
326.90005 -29.551779 1309.0
335.55057 -29.66466 1314.0
342.95248 -29.66466 1314.0
350.3543 -29.66466 1314.0
356.39484 -29.551779 1309.0
365.158 -29.66466 1314.0
372.5598 -29.66466 1314.0
379.96173 -29.66466 1314.0
387.3636 -29.66466 1314.0
396.26758 -29.777538 1319.0
403.69757 -29.777538 1319.0
411.12756 -29.777538 1319.0
418.55765 -29.777538 1319.0
425.98764 -29.777538 1319.0
433.41763 -29.777538 1319.0
440.84766 -29.777538 1319.0
448.27765 -29.777538 1319.0
455.70773 -29.777538 1319.0
463.13773 -29.777538 1319.0
472.35153 -29.890417 1324.0
479.8097 -29.890417 1324.0
489.108 -30.003296 1329.0
494.7261 -29.890417 1324.0
502.18427 -29.890417 1324.0
509.64246 -29.890417 1324.0
519.0534 -30.003296 1329.0
526.53973 -30.003296 1329.0
534.0261 -30.003296 1329.0
541.5125 -30.003296 1329.0
548.99884 -30.003296 1329.0
556.48517 -30.003296 1329.0
566.09326 -30.116177 1334.0
573.60785 -30.116177 1334.0
578.9442 -30.003296 1329.0
586.43054 -30.003296 1329.0
596.1513 -30.116177 1334.0
603.66583 -30.116177 1334.0
608.88965 -30.003296 1329.0
616.376 -30.003296 1329.0
623.8623 -30.003296 1329.0
631.34863 -30.003296 1329.0
638.83496 -30.003296 1329.0
648.753 -30.116177 1334.0
656.26746 -30.116177 1334.0
661.294 -30.003296 1329.0
668.78033 -30.003296 1329.0
676.2667 -30.003296 1329.0
686.32556 -30.116177 1334.0
693.84 -30.116177 1334.0
698.72577 -30.003296 1329.0
706.2121 -30.003296 1329.0
716.38354 -30.116177 1334.0
723.8981 -30.116177 1334.0
728.67114 -30.003296 1329.0
738.9271 -30.116177 1334.0
746.4416 -30.116177 1334.0
753.9561 -30.116177 1334.0
758.6166 -30.003296 1329.0
766.1029 -30.003296 1329.0
776.49963 -30.116177 1334.0
784.01416 -30.116177 1334.0
791.5286 -30.116177 1334.0
802.03815 -30.229055 1339.0
-741.631 -35.839188 1270.0
-737.3686 -35.980286 1275.0
-730.18646 -35.980286 1275.0
-720.169 -35.839188 1270.0
-713.01495 -35.839188 1270.0
-708.63995 -35.980286 1275.0
-698.707 -35.839188 1270.0
-691.553 -35.839188 1270.0
-684.399 -35.839188 1270.0
-679.9113 -35.980286 1275.0
-675.3673 -36.121384 1280.0
-665.547 -35.980286 1275.0
-660.94666 -36.121384 1280.0
-653.7363 -36.121384 1280.0
-648.5463 -36.234264 1284.0
-641.3136 -36.234264 1284.0
-634.0807 -36.234264 1284.0
-624.895 -36.121384 1280.0
-617.6847 -36.121384 1280.0
-610.47437 -36.121384 1280.0
-603.26404 -36.121384 1280.0
-596.0537 -36.121384 1280.0
-590.68353 -36.234264 1284.0
-581.63306 -36.121384 1280.0
-574.4227 -36.121384 1280.0
-568.9849 -36.234264 1284.0
-563.9396 -36.375362 1289.0
-556.6786 -36.375362 1289.0
-547.2864 -36.234264 1284.0
-538.3711 -36.121384 1280.0
-532.8207 -36.234264 1284.0
-527.63446 -36.375362 1289.0
-520.3734 -36.375362 1289.0
-513.1124 -36.375362 1289.0
-505.85138 -36.375362 1289.0
-498.59036 -36.375362 1289.0
-491.3293 -36.375362 1289.0
-484.06833 -36.375362 1289.0
-476.8073 -36.375362 1289.0
-469.54626 -36.375362 1289.0
-462.28525 -36.375362 1289.0
-455.0242 -36.375362 1289.0
-447.76318 -36.375362 1289.0
-438.7935 -36.234264 1284.0
-433.24115 -36.375362 1289.0
-425.98013 -36.375362 1289.0
-418.7191 -36.375362 1289.0
-411.45807 -36.375362 1289.0
-404.19705 -36.375362 1289.0
-396.936 -36.375362 1289.0
-389.675 -36.375362 1289.0
-382.41397 -36.375362 1289.0
-375.15295 -36.375362 1289.0
-367.89194 -36.375362 1289.0
-360.6309 -36.375362 1289.0
-353.36987 -36.375362 1289.0
-346.10883 -36.375362 1289.0
-340.1622 -36.516464 1294.0
-332.87302 -36.516464 1294.0
-325.58383 -36.516464 1294.0
-317.06476 -36.375362 1289.0
-309.8037 -36.375362 1289.0
-302.5427 -36.375362 1289.0
-295.28168 -36.375362 1289.0
-288.02063 -36.375362 1289.0
-280.75964 -36.375362 1289.0
-273.4986 -36.375362 1289.0
-266.23758 -36.375362 1289.0
-258.97656 -36.375362 1289.0
-251.71552 -36.375362 1289.0
-244.45451 -36.375362 1289.0
-237.19347 -36.375362 1289.0
-171.0669 -27.062819 959.0
-164.45555 -26.86528 952.0
-159.09286 -26.86528 952.0
-154.05315 -26.92172 954.0
-149.14673 -27.00638 957.0
-144.50697 -27.147478 962.0
-139.08798 -27.147478 962.0
-134.08578 -27.232138 965.0
-129.04984 -27.316797 968.0
-135.01338 -36.234264 1284.0
-127.7805 -36.234264 1284.0
-120.54765 -36.234264 1284.0
-112.96181 -36.121384 1280.0
-105.75146 -36.121384 1280.0
-98.84908 -36.234264 1284.0
-91.97297 -36.375362 1289.0
-84.71195 -36.375362 1289.0
-77.45094 -36.375362 1289.0
-69.69982 -36.121384 1280.0
-62.684788 -36.234264 1284.0
-55.66784 -36.375362 1289.0
-48.40683 -36.375362 1289.0
-41.145824 -36.375362 1289.0
-33.648186 -36.121384 1280.0
-26.520494 -36.234264 1284.0
-19.287605 -36.234264 1284.0
-12.054766 -36.234264 1284.0
-4.821924 -36.234264 1284.0
2.4203048 -36.375362 1289.0
9.643848 -36.234264 1284.0
16.94241 -36.375362 1289.0
24.109531 -36.234264 1284.0
31.464422 -36.375362 1289.0
38.57521 -36.234264 1284.0
46.16491 -36.516464 1294.0
53.45408 -36.516464 1294.0
60.74325 -36.516464 1294.0
68.032425 -36.516464 1294.0
75.321594 -36.516464 1294.0
82.61086 -36.516464 1294.0
89.900024 -36.516464 1294.0
97.1892 -36.516464 1294.0
104.47838 -36.516464 1294.0
112.19941 -36.657562 1299.0
119.05681 -36.516464 1294.0
126.34598 -36.516464 1294.0
133.63515 -36.516464 1294.0
141.46886 -36.657562 1299.0
148.7862 -36.657562 1299.0
156.1036 -36.657562 1299.0
163.42096 -36.657562 1299.0
170.7383 -36.657562 1299.0
178.05563 -36.657562 1299.0
185.37297 -36.657562 1299.0
192.69038 -36.657562 1299.0
200.00774 -36.657562 1299.0
207.32507 -36.657562 1299.0
214.64241 -36.657562 1299.0
221.95975 -36.657562 1299.0
229.27716 -36.657562 1299.0
236.59451 -36.657562 1299.0
244.8507 -36.79866 1304.0
252.1962 -36.79866 1304.0
259.54172 -36.79866 1304.0
266.8873 -36.79866 1304.0
274.2328 -36.79866 1304.0
281.5783 -36.79866 1304.0
288.9238 -36.79866 1304.0
296.26932 -36.79866 1304.0
304.77905 -36.939762 1309.0
312.15274 -36.939762 1309.0
319.5264 -36.939762 1309.0
326.90005 -36.939762 1309.0
334.27374 -36.939762 1309.0
342.95248 -37.08086 1314.0
350.3543 -37.08086 1314.0
357.75616 -37.08086 1314.0
363.7685 -36.939762 1309.0
372.5598 -37.08086 1314.0
379.96173 -37.08086 1314.0
387.3636 -37.08086 1314.0
396.26758 -37.22196 1319.0
403.69757 -37.22196 1319.0
409.5691 -37.08086 1314.0
416.971 -37.08086 1314.0
424.37283 -37.08086 1314.0
431.77466 -37.08086 1314.0
439.1765 -37.08086 1314.0
448.27765 -37.22196 1319.0
457.4352 -37.363056 1324.0
463.13773 -37.22196 1319.0
472.35153 -37.363056 1324.0
479.8097 -37.363056 1324.0
489.108 -37.504158 1329.0
494.7261 -37.363056 1324.0
502.18427 -37.363056 1324.0
509.64246 -37.363056 1324.0
519.0534 -37.504158 1329.0
526.53973 -37.504158 1329.0
534.0261 -37.504158 1329.0
543.5498 -37.645256 1334.0
548.99884 -37.504158 1329.0
556.48517 -37.504158 1329.0
563.9715 -37.504158 1329.0
571.4579 -37.504158 1329.0
578.9442 -37.504158 1329.0
586.43054 -37.504158 1329.0
596.1513 -37.645256 1334.0
601.4032 -37.504158 1329.0
608.88965 -37.504158 1329.0
616.376 -37.504158 1329.0
621.5152 -37.363056 1324.0
628.9733 -37.363056 1324.0
638.83496 -37.504158 1329.0
646.32135 -37.504158 1329.0
656.26746 -37.645256 1334.0
661.294 -37.504158 1329.0
668.78033 -37.504158 1329.0
676.2667 -37.504158 1329.0
686.32556 -37.645256 1334.0
693.84 -37.645256 1334.0
698.72577 -37.504158 1329.0
708.869 -37.645256 1334.0
716.38354 -37.645256 1334.0
723.8981 -37.645256 1334.0
731.4126 -37.645256 1334.0
738.9271 -37.645256 1334.0
749.2394 -37.786354 1339.0
753.9561 -37.645256 1334.0
758.6166 -37.504158 1329.0
766.1029 -37.504158 1329.0
776.49963 -37.645256 1334.0
784.01416 -37.645256 1334.0
791.5286 -37.645256 1334.0
802.03815 -37.786354 1339.0
-741.631 -43.007053 1270.0
-734.477 -43.007053 1270.0
-730.18646 -43.176373 1275.0
-720.169 -43.007053 1270.0
-713.01495 -43.007053 1270.0
-705.86096 -43.007053 1270.0
-698.707 -43.007053 1270.0
-691.553 -43.007053 1270.0
-684.399 -43.007053 1270.0
-679.9113 -43.176373 1275.0
-675.3673 -43.345688 1280.0
-665.547 -43.176373 1275.0
-658.3648 -43.176373 1275.0
-653.7363 -43.345688 1280.0
-646.526 -43.345688 1280.0
-643.8109 -43.650467 1289.0
-634.0807 -43.481148 1284.0
-624.895 -43.345688 1280.0
-617.6847 -43.345688 1280.0
-610.47437 -43.345688 1280.0
-600.90753 -43.176373 1275.0
-593.7254 -43.176373 1275.0
-588.8434 -43.345688 1280.0
-579.361 -43.176373 1275.0
-574.4227 -43.345688 1280.0
-568.9849 -43.481148 1284.0
-563.9396 -43.650467 1289.0
-556.6786 -43.650467 1289.0
-549.41754 -43.650467 1289.0
-540.05347 -43.481148 1284.0
-534.8955 -43.650467 1289.0
-527.63446 -43.650467 1289.0
-520.3734 -43.650467 1289.0
-513.1124 -43.650467 1289.0
-505.85138 -43.650467 1289.0
-498.59036 -43.650467 1289.0
-489.42346 -43.481148 1284.0
-482.1906 -43.481148 1284.0
-476.8073 -43.650467 1289.0
-467.7249 -43.481148 1284.0
-460.49207 -43.481148 1284.0
-453.2592 -43.481148 1284.0
-447.76318 -43.650467 1289.0
-440.5022 -43.650467 1289.0
-433.24115 -43.650467 1289.0
-425.98013 -43.650467 1289.0
-418.7191 -43.650467 1289.0
-411.45807 -43.650467 1289.0
-404.19705 -43.650467 1289.0
-396.936 -43.650467 1289.0
-389.675 -43.650467 1289.0
-382.41397 -43.650467 1289.0
-375.15295 -43.650467 1289.0
-367.89194 -43.650467 1289.0
-360.6309 -43.650467 1289.0
-351.99918 -43.481148 1284.0
-346.10883 -43.650467 1289.0
-338.8478 -43.650467 1289.0
-331.58682 -43.650467 1289.0
-324.32578 -43.650467 1289.0
-317.06476 -43.650467 1289.0
-309.8037 -43.650467 1289.0
-302.5427 -43.650467 1289.0
-296.4271 -43.819786 1294.0
-288.02063 -43.650467 1289.0
-280.75964 -43.650467 1289.0
-273.4986 -43.650467 1289.0
-266.23758 -43.650467 1289.0
-258.97656 -43.650467 1289.0
-252.69191 -43.819786 1294.0
-171.0669 -32.475407 959.0
-164.45555 -32.238358 952.0
-159.09286 -32.238358 952.0
-154.05315 -32.306087 954.0
-144.05634 -32.475407 959.0
-139.08798 -32.576996 962.0
-133.66895 -32.576996 962.0
-135.01338 -43.481148 1284.0
-89.96384 -30.612892 904.0
-84.87156 -30.612892 904.0
-80.220535 -30.782211 909.0
-74.93482 -30.714483 907.0
-41.30543 -43.819786 1294.0
-33.753334 -43.481148 1284.0
-26.623768 -43.650467 1289.0
-19.287605 -43.481148 1284.0
-12.054766 -43.481148 1284.0
-4.821924 -43.481148 1284.0
2.4109163 -43.481148 1284.0
9.643848 -43.481148 1284.0
16.94241 -43.650467 1289.0
24.203415 -43.650467 1289.0
31.464422 -43.650467 1289.0
38.725426 -43.650467 1289.0
46.16491 -43.819786 1294.0
53.45408 -43.819786 1294.0
60.74325 -43.819786 1294.0
68.032425 -43.819786 1294.0
75.321594 -43.819786 1294.0
82.61086 -43.819786 1294.0
89.900024 -43.819786 1294.0
97.1892 -43.819786 1294.0
104.47838 -43.819786 1294.0
112.19941 -43.9891 1299.0
119.05681 -43.819786 1294.0
126.34598 -43.819786 1294.0
133.63515 -43.819786 1294.0
140.92433 -43.819786 1294.0
148.2135 -43.819786 1294.0
156.1036 -43.9891 1299.0
163.42096 -43.9891 1299.0
170.7383 -43.9891 1299.0
178.05563 -43.9891 1299.0
185.37297 -43.9891 1299.0
192.69038 -43.9891 1299.0
200.00774 -43.9891 1299.0
207.32507 -43.9891 1299.0
215.4686 -44.15842 1304.0
221.95975 -43.9891 1299.0
229.27716 -43.9891 1299.0
237.50519 -44.15842 1304.0
244.8507 -44.15842 1304.0
252.1962 -44.15842 1304.0
259.54172 -44.15842 1304.0
266.8873 -44.15842 1304.0
274.2328 -44.15842 1304.0
281.5783 -44.15842 1304.0
288.9238 -44.15842 1304.0
296.26932 -44.15842 1304.0
304.77905 -44.32774 1309.0
312.15274 -44.32774 1309.0
319.5264 -44.32774 1309.0
326.90005 -44.32774 1309.0
334.27374 -44.32774 1309.0
341.6475 -44.32774 1309.0
350.3543 -44.49706 1314.0
357.75616 -44.49706 1314.0
365.158 -44.49706 1314.0
372.5598 -44.49706 1314.0
379.96173 -44.49706 1314.0
387.3636 -44.49706 1314.0
394.7654 -44.49706 1314.0
403.69757 -44.666378 1319.0
411.12756 -44.666378 1319.0
416.971 -44.49706 1314.0
424.37283 -44.49706 1314.0
431.77466 -44.49706 1314.0
439.1765 -44.49706 1314.0
448.27765 -44.666378 1319.0
457.4352 -44.835697 1324.0
464.89337 -44.835697 1324.0
472.35153 -44.835697 1324.0
479.8097 -44.835697 1324.0
487.26788 -44.835697 1324.0
494.7261 -44.835697 1324.0
504.08075 -45.005016 1329.0
511.56708 -45.005016 1329.0
519.0534 -45.005016 1329.0
526.53973 -45.005016 1329.0
534.0261 -45.005016 1329.0
541.5125 -45.005016 1329.0
546.93335 -44.835697 1324.0
556.48517 -45.005016 1329.0
563.9715 -45.005016 1329.0
571.4579 -45.005016 1329.0
578.9442 -45.005016 1329.0
586.43054 -45.005016 1329.0
596.1513 -45.174335 1334.0
603.66583 -45.174335 1334.0
608.88965 -45.005016 1329.0
616.376 -45.005016 1329.0
626.2094 -45.174335 1334.0
628.9733 -44.835697 1324.0
638.83496 -45.005016 1329.0
646.32135 -45.005016 1329.0
656.26746 -45.174335 1334.0
661.294 -45.005016 1329.0
668.78033 -45.005016 1329.0
678.811 -45.174335 1334.0
686.32556 -45.174335 1334.0
693.84 -45.174335 1334.0
701.35455 -45.174335 1334.0
708.869 -45.174335 1334.0
716.38354 -45.174335 1334.0
723.8981 -45.174335 1334.0
731.4126 -45.174335 1334.0
738.9271 -45.174335 1334.0
746.4416 -45.174335 1334.0
753.9561 -45.174335 1334.0
761.47064 -45.174335 1334.0
766.1029 -45.005016 1329.0
776.49963 -45.174335 1334.0
784.01416 -45.174335 1334.0
794.4954 -45.343655 1339.0
802.03815 -45.343655 1339.0
-744.5508 -50.372387 1275.0
-734.477 -50.174847 1270.0
-727.323 -50.174847 1270.0
-717.3337 -49.97731 1265.0
-713.01495 -50.174847 1270.0
-705.86096 -50.174847 1270.0
-701.4578 -50.372387 1275.0
-691.553 -50.174847 1270.0
-684.399 -50.174847 1270.0
-679.9113 -50.372387 1275.0
-675.3673 -50.569927 1280.0
-665.547 -50.372387 1275.0
-658.3648 -50.372387 1275.0
-651.1827 -50.372387 1275.0
-644.0005 -50.372387 1275.0
-639.3157 -50.569927 1280.0
-632.10535 -50.569927 1280.0
-624.895 -50.569927 1280.0
-617.6847 -50.569927 1280.0
-610.47437 -50.569927 1280.0
-605.14923 -50.727955 1284.0
-596.0537 -50.569927 1280.0
-588.8434 -50.569927 1280.0
-581.63306 -50.569927 1280.0
-576.2178 -50.727955 1284.0
-568.9849 -50.727955 1284.0
-563.9396 -50.925495 1289.0
-556.6786 -50.925495 1289.0
-549.41754 -50.925495 1289.0
-540.05347 -50.727955 1284.0
-532.8207 -50.727955 1284.0
-527.63446 -50.925495 1289.0
-520.3734 -50.925495 1289.0
-513.1124 -50.925495 1289.0
-505.85138 -50.925495 1289.0
-498.59036 -50.925495 1289.0
-489.42346 -50.727955 1284.0
-482.1906 -50.727955 1284.0
-476.8073 -50.925495 1289.0
-467.7249 -50.727955 1284.0
-460.49207 -50.727955 1284.0
-453.2592 -50.727955 1284.0
-447.76318 -50.925495 1289.0
-440.5022 -50.925495 1289.0
-433.24115 -50.925495 1289.0
-425.98013 -50.925495 1289.0
-418.7191 -50.925495 1289.0
-411.45807 -50.925495 1289.0
-404.19705 -50.925495 1289.0
-396.936 -50.925495 1289.0
-389.675 -50.925495 1289.0
-382.41397 -50.925495 1289.0
-375.15295 -50.925495 1289.0
-367.89194 -50.925495 1289.0
-360.6309 -50.925495 1289.0
-353.36987 -50.925495 1289.0
-346.10883 -50.925495 1289.0
-338.8478 -50.925495 1289.0
-331.58682 -50.925495 1289.0
-324.32578 -50.925495 1289.0
-317.06476 -50.925495 1289.0
-309.8037 -50.925495 1289.0
-302.5427 -50.925495 1289.0
-295.28168 -50.925495 1289.0
-288.02063 -50.925495 1289.0
-281.8487 -51.12303 1294.0
-274.55948 -51.12303 1294.0
-266.23758 -50.925495 1289.0
-154.95444 -35.438457 897.0
-132.33954 -34.80633 881.0
-127.665985 -34.88535 883.0
-107.52588 -34.80633 881.0
-94.5304 -35.51747 899.0
-89.26721 -35.438457 897.0
-84.21437 -35.438457 897.0
-79.602776 -35.635994 902.0
-74.52173 -35.635994 902.0
-69.979614 -35.912548 909.0
-26.623768 -50.925495 1289.0
-19.287605 -50.727955 1284.0
-12.054766 -50.727955 1284.0
-4.821924 -50.727955 1284.0
2.4109163 -50.727955 1284.0
9.643848 -50.727955 1284.0
16.94241 -50.925495 1289.0
24.203415 -50.925495 1289.0
31.464422 -50.925495 1289.0
38.725426 -50.925495 1289.0
46.16491 -51.12303 1294.0
53.45408 -51.12303 1294.0
60.74325 -51.12303 1294.0
68.032425 -51.12303 1294.0
75.321594 -51.12303 1294.0
82.61086 -51.12303 1294.0
89.900024 -51.12303 1294.0
97.1892 -51.12303 1294.0
104.88208 -51.32057 1299.0
112.19941 -51.32057 1299.0
119.516846 -51.32057 1299.0
126.34598 -51.12303 1294.0
133.63515 -51.12303 1294.0
140.92433 -51.12303 1294.0
148.7862 -51.32057 1299.0
156.1036 -51.32057 1299.0
163.42096 -51.32057 1299.0
170.7383 -51.32057 1299.0
178.05563 -51.32057 1299.0
185.37297 -51.32057 1299.0
192.69038 -51.32057 1299.0
200.00774 -51.32057 1299.0
207.32507 -51.32057 1299.0
214.64241 -51.32057 1299.0
221.95975 -51.32057 1299.0
230.15968 -51.518112 1304.0
237.50519 -51.518112 1304.0
244.8507 -51.518112 1304.0
253.16321 -51.71565 1309.0
259.54172 -51.518112 1304.0
267.9106 -51.71565 1309.0
275.2843 -51.71565 1309.0
281.5783 -51.518112 1304.0
287.81598 -51.32057 1299.0
296.26932 -51.518112 1304.0
303.6149 -51.518112 1304.0
312.15274 -51.71565 1309.0
319.5264 -51.71565 1309.0
326.90005 -51.71565 1309.0
332.99692 -51.518112 1304.0
341.6475 -51.71565 1309.0
350.3543 -51.91319 1314.0
357.75616 -51.91319 1314.0
365.158 -51.91319 1314.0
373.97748 -52.11073 1319.0
379.96173 -51.91319 1314.0
387.3636 -51.91319 1314.0
396.26758 -52.11073 1319.0
403.69757 -52.11073 1319.0
411.12756 -52.11073 1319.0
418.55765 -52.11073 1319.0
424.37283 -51.91319 1314.0
431.77466 -51.91319 1314.0
440.84766 -52.11073 1319.0
448.27765 -52.11073 1319.0
455.70773 -52.11073 1319.0
464.89337 -52.308266 1324.0
472.35153 -52.308266 1324.0
479.8097 -52.308266 1324.0
487.26788 -52.308266 1324.0
494.7261 -52.308266 1324.0
504.08075 -52.505806 1329.0
511.56708 -52.505806 1329.0
519.0534 -52.505806 1329.0
526.53973 -52.505806 1329.0
534.0261 -52.505806 1329.0
543.5498 -52.703342 1334.0
548.99884 -52.505806 1329.0
556.48517 -52.505806 1329.0
566.09326 -52.703342 1334.0
573.60785 -52.703342 1334.0
578.9442 -52.505806 1329.0
586.43054 -52.505806 1329.0
593.9169 -52.505806 1329.0
603.66583 -52.703342 1334.0
608.88965 -52.505806 1329.0
616.376 -52.505806 1329.0
623.8623 -52.505806 1329.0
631.34863 -52.505806 1329.0
638.83496 -52.505806 1329.0
648.753 -52.703342 1334.0
653.8077 -52.505806 1329.0
663.782 -52.703342 1334.0
668.78033 -52.505806 1329.0
678.811 -52.703342 1334.0
686.32556 -52.703342 1334.0
693.84 -52.703342 1334.0
696.097 -52.308266 1324.0
706.2121 -52.505806 1329.0
716.38354 -52.703342 1334.0
723.8981 -52.703342 1334.0
728.67114 -52.505806 1329.0
738.9271 -52.703342 1334.0
746.4416 -52.703342 1334.0
753.9561 -52.703342 1334.0
761.47064 -52.703342 1334.0
768.98517 -52.703342 1334.0
773.58923 -52.505806 1329.0
784.01416 -52.703342 1334.0
791.5286 -52.703342 1334.0
802.03815 -52.900883 1339.0
-744.5508 -57.56847 1275.0
-737.3686 -57.56847 1275.0
-727.323 -57.342712 1270.0
-717.3337 -57.116955 1265.0
-713.01495 -57.342712 1270.0
-705.86096 -57.342712 1270.0
-701.4578 -57.56847 1275.0
-691.553 -57.342712 1270.0
-684.399 -57.342712 1270.0
-679.9113 -57.56847 1275.0
-672.7291 -57.56847 1275.0
-668.157 -57.79423 1280.0
-660.94666 -57.79423 1280.0
-651.1827 -57.56847 1275.0
-644.0005 -57.56847 1275.0
-636.81836 -57.56847 1275.0
-632.10535 -57.79423 1280.0
-624.895 -57.79423 1280.0
-619.615 -57.974834 1284.0
-614.7668 -58.200592 1289.0
-607.50574 -58.200592 1289.0
-596.0537 -57.79423 1280.0
-588.8434 -57.79423 1280.0
-581.63306 -57.79423 1280.0
-576.2178 -57.974834 1284.0
-568.9849 -57.974834 1284.0
-561.7521 -57.974834 1284.0
-556.6786 -58.200592 1289.0
-547.2864 -57.974834 1284.0
-542.1565 -58.200592 1289.0
-532.8207 -57.974834 1284.0
-527.63446 -58.200592 1289.0
-520.3734 -58.200592 1289.0
-513.1124 -58.200592 1289.0
-505.85138 -58.200592 1289.0
-498.59036 -58.200592 1289.0
-491.3293 -58.200592 1289.0
-484.06833 -58.200592 1289.0
-476.8073 -58.200592 1289.0
-469.54626 -58.200592 1289.0
-462.28525 -58.200592 1289.0
-455.0242 -58.200592 1289.0
-447.76318 -58.200592 1289.0
-440.5022 -58.200592 1289.0
-433.24115 -58.200592 1289.0
-427.6325 -58.42635 1294.0
-418.7191 -58.200592 1289.0
-411.45807 -58.200592 1289.0
-404.19705 -58.200592 1289.0
-398.4757 -58.42635 1294.0
-389.675 -58.200592 1289.0
-382.41397 -58.200592 1289.0
-375.15295 -58.200592 1289.0
-367.89194 -58.200592 1289.0
-360.6309 -58.200592 1289.0
-353.36987 -58.200592 1289.0
-346.10883 -58.200592 1289.0
-338.8478 -58.200592 1289.0
-331.58682 -58.200592 1289.0
-324.32578 -58.200592 1289.0
-317.06476 -58.200592 1289.0
-309.8037 -58.200592 1289.0
-302.5427 -58.200592 1289.0
-295.28168 -58.200592 1289.0
-288.02063 -58.200592 1289.0
-281.8487 -58.42635 1294.0
-274.55948 -58.42635 1294.0
-267.2703 -58.42635 1294.0
-177.8998 -41.133236 911.0
-172.3888 -41.042934 909.0
-154.09071 -40.275352 892.0
-137.61397 -39.868988 883.0
-132.63998 -39.868988 883.0
-127.665985 -39.868988 883.0
-122.69197 -39.868988 883.0
-107.76998 -39.868988 883.0
-102.79599 -39.868988 883.0
-98.37589 -40.094746 888.0
-93.37374 -40.094746 888.0
-88.37156 -40.094746 888.0
-83.557175 -40.18505 890.0
-78.72027 -40.275352 892.0
-73.943405 -40.41081 895.0
-69.20976 -40.59142 899.0
-64.14561 -40.59142 899.0
-19.287605 -57.974834 1284.0
-12.054766 -57.974834 1284.0
-4.821924 -57.974834 1284.0
2.4109163 -57.974834 1284.0
9.643848 -57.974834 1284.0
16.94241 -58.200592 1289.0
24.203415 -58.200592 1289.0
31.464422 -58.200592 1289.0
38.725426 -58.200592 1289.0
46.16491 -58.42635 1294.0
53.45408 -58.42635 1294.0
60.74325 -58.42635 1294.0
68.032425 -58.42635 1294.0
75.321594 -58.42635 1294.0
82.61086 -58.42635 1294.0
89.900024 -58.42635 1294.0
97.1892 -58.42635 1294.0
104.47838 -58.42635 1294.0
112.19941 -58.65211 1299.0
119.05681 -58.42635 1294.0
126.34598 -58.42635 1294.0
134.15152 -58.65211 1299.0
141.46886 -58.65211 1299.0
148.7862 -58.65211 1299.0
156.1036 -58.65211 1299.0
163.42096 -58.65211 1299.0
170.7383 -58.65211 1299.0
178.05563 -58.65211 1299.0
185.37297 -58.65211 1299.0
192.69038 -58.65211 1299.0
200.00774 -58.65211 1299.0
207.32507 -58.65211 1299.0
214.64241 -58.65211 1299.0
221.95975 -58.65211 1299.0
229.27716 -58.65211 1299.0
236.59451 -58.65211 1299.0
243.91185 -58.65211 1299.0
251.22919 -58.65211 1299.0
258.54654 -58.65211 1299.0
266.8873 -58.87787 1304.0
274.2328 -58.87787 1304.0
280.49863 -58.65211 1299.0
287.81598 -58.65211 1299.0
296.26932 -58.87787 1304.0
303.6149 -58.87787 1304.0
312.15274 -59.103626 1309.0
320.7469 -59.329388 1314.0
326.90005 -59.103626 1309.0
334.27374 -59.103626 1309.0
341.6475 -59.103626 1309.0
350.3543 -59.329388 1314.0
357.75616 -59.329388 1314.0
365.158 -59.329388 1314.0
372.5598 -59.329388 1314.0
379.96173 -59.329388 1314.0
387.3636 -59.329388 1314.0
394.7654 -59.329388 1314.0
403.69757 -59.555145 1319.0
411.12756 -59.555145 1319.0
418.55765 -59.555145 1319.0
424.37283 -59.329388 1314.0
433.41763 -59.555145 1319.0
440.84766 -59.555145 1319.0
446.57834 -59.329388 1314.0
455.70773 -59.555145 1319.0
463.13773 -59.555145 1319.0
470.56772 -59.555145 1319.0
477.99774 -59.555145 1319.0
485.42773 -59.555145 1319.0
492.85782 -59.555145 1319.0
500.2878 -59.555145 1319.0
511.56708 -60.00666 1329.0
519.0534 -60.00666 1329.0
526.53973 -60.00666 1329.0
534.0261 -60.00666 1329.0
541.5125 -60.00666 1329.0
548.99884 -60.00666 1329.0
556.48517 -60.00666 1329.0
566.09326 -60.23242 1334.0
573.60785 -60.23242 1334.0
578.9442 -60.00666 1329.0
584.22424 -59.780903 1324.0
593.9169 -60.00666 1329.0
601.4032 -60.00666 1329.0
608.88965 -60.00666 1329.0
618.6949 -60.23242 1334.0
621.5152 -59.780903 1324.0
631.34863 -60.00666 1329.0
638.83496 -60.00666 1329.0
648.753 -60.23242 1334.0
653.8077 -60.00666 1329.0
663.782 -60.23242 1334.0
666.2643 -59.780903 1324.0
676.2667 -60.00666 1329.0
683.7531 -60.00666 1329.0
691.23944 -60.00666 1329.0
696.097 -59.780903 1324.0
703.5552 -59.780903 1324.0
713.6984 -60.00666 1329.0
721.1848 -60.00666 1329.0
728.67114 -60.00666 1329.0
738.9271 -60.23242 1334.0
746.4416 -60.23242 1334.0
753.9561 -60.23242 1334.0
758.6166 -60.00666 1329.0
766.1029 -60.00666 1329.0
770.67883 -59.780903 1324.0
781.07556 -60.00666 1329.0
788.5619 -60.00666 1329.0
799.0432 -60.23242 1334.0
-741.631 -64.510506 1270.0
-737.3686 -64.76449 1275.0
-727.323 -64.510506 1270.0
-720.169 -64.510506 1270.0
-713.01495 -64.510506 1270.0
-705.86096 -64.510506 1270.0
-698.707 -64.510506 1270.0
-694.27563 -64.76449 1275.0
-684.399 -64.510506 1270.0
-677.245 -64.510506 1270.0
-670.091 -64.510506 1270.0
-665.547 -64.76449 1275.0
-660.94666 -65.01846 1280.0
-653.7363 -65.01846 1280.0
